ply
format ascii 1.0
comment VCGLIB generated
element vertex 1937
property float x
property float y
property float z
element face 0
property list uchar int vertex_indices
end_header
49.1053 86.1725 65.4672 
48.9583 86.4218 65.7237 
48.8708 86.6956 65.979 
48.86 86.9763 66.2211 
48.8982 87.2682 66.4496 
48.9911 87.5434 66.6522 
49.1451 87.8069 66.8236 
49.3091 88.0558 66.9701 
49.4804 88.2998 67.1029 
49.6513 88.5352 67.2289 
49.8177 88.7653 67.3414 
49.9834 88.9914 67.4503 
50.1471 89.2095 67.5531 
50.3156 89.4225 67.6401 
50.4947 89.6219 67.717 
50.6865 89.804 67.7762 
50.8925 89.969 67.8121 
51.1132 90.1133 67.8274 
51.34 90.2286 67.8177 
51.5688 90.3382 67.7974 
51.7983 90.4338 67.7654 
52.0254 90.5157 67.7251 
52.2499 90.5849 67.6714 
52.474 90.6492 67.6116 
52.6944 90.6942 67.5392 
52.9133 90.7315 67.4588 
53.1289 90.7519 67.3708 
53.3379 90.7414 67.2631 
53.5422 90.7264 67.1554 
53.7354 90.6797 67.0332 
53.9263 90.6243 66.907 
54.0993 90.5462 66.7711 
54.2581 90.4441 66.6271 
54.416 90.3407 66.4823 
54.5628 90.2278 66.3294 
54.7062 90.1098 66.1748 
54.8369 89.9779 66.0135 
54.9594 89.8428 65.8479 
55.0837 89.7014 65.6813 
55.1939 89.5524 65.5073 
55.2974 89.3949 65.3309 
55.379 89.2235 65.1485 
55.4407 89.0371 64.9644 
55.4709 88.8306 64.7821 
55.4365 88.601 64.619 
55.375 88.3679 64.4658 
55.276 88.1294 64.3263 
55.1271 87.8948 64.2159 
54.9533 87.6622 64.1191 
54.7552 87.4351 64.0342 
54.5453 87.2081 63.9576 
54.3226 86.9831 63.8818 
54.0874 86.7527 63.8082 
53.8411 86.5292 63.7363 
53.5864 86.2977 63.6633 
53.3259 86.0661 63.59 
53.0464 85.8408 63.5256 
52.7509 85.6232 63.4736 
52.4346 85.4222 63.4469 
52.0919 85.2517 63.4597 
51.7336 85.1206 63.5145 
51.3709 85.0825 63.6513 
51.0202 85.1024 63.8261 
50.859 85.3864 63.4736 
50.5338 85.4661 63.6806 
50.2364 85.59 63.9102 
49.9605 85.7381 64.1494 
49.7054 85.907 64.3916 
49.4442 86.0725 64.632 
49.2211 86.2659 64.8765 
49.0433 86.4879 65.1287 
48.9242 86.7361 65.3835 
48.8461 86.9963 65.6369 
48.8253 87.2662 65.8816 
48.8648 87.5363 66.1111 
48.9494 87.7981 66.3164 
49.0775 88.0538 66.4977 
49.2209 88.2979 66.6622 
49.3725 88.5357 66.8161 
49.5348 88.7638 66.9493 
49.7007 88.989 67.0711 
49.8665 89.2085 67.187 
50.0344 89.4207 67.2927 
50.2091 89.623 67.3856 
50.3907 89.8153 67.4657 
50.5882 89.9927 67.5236 
50.797 90.1515 67.5629 
51.0146 90.2914 67.5852 
51.2422 90.4105 67.5801 
51.4689 90.514 67.5677 
51.6973 90.612 67.5449 
51.9229 90.6836 67.4984 
52.1495 90.7542 67.4546 
52.3705 90.797 67.3847 
52.5904 90.8388 67.3115 
52.8042 90.8548 67.2223 
53.0195 90.8773 67.1375 
53.2245 90.8658 67.032 
53.4251 90.8425 66.9205 
53.6215 90.808 66.8038 
53.8067 90.7504 66.6763 
53.9851 90.6817 66.5436 
54.155 90.5985 66.4059 
54.3116 90.4989 66.259 
54.4615 90.3925 66.108 
54.6035 90.2771 65.9533 
54.7297 90.1491 65.7899 
54.8538 90.0156 65.6253 
54.9656 89.8773 65.4556 
55.0695 89.7274 65.2787 
55.1626 89.572 65.0998 
55.2421 89.4052 64.9191 
55.2844 89.2185 64.7329 
55.3059 89.0175 64.5525 
55.288 88.8014 64.3794 
55.2244 88.577 64.22 
55.121 88.3441 64.0816 
54.9853 88.1113 63.9539 
54.8114 87.8855 63.8511 
54.6163 87.6629 63.7614 
54.401 87.445 63.6812 
54.1725 87.2289 63.6054 
53.9292 87.0134 63.5313 
53.6814 86.7944 63.4577 
53.4238 86.5759 63.3819 
53.1616 86.3532 63.306 
52.8813 86.1346 63.2403 
52.5846 85.9242 63.1842 
52.2736 85.7246 63.1459 
51.936 85.5542 63.1463 
51.5759 85.4316 63.1992 
51.2112 85.3663 63.3019 
50.8589 85.3865 63.4735 
50.6986 85.6672 63.1171 
50.3684 85.744 63.322 
50.071 85.8683 63.5526 
49.8054 86.0237 63.7974 
49.5627 86.1967 64.047 
49.3349 86.3799 64.2962 
49.1431 86.5836 64.5488 
48.9791 86.8018 64.8031 
48.8814 87.0458 65.0587 
48.8254 87.2963 65.3101 
48.8057 87.5534 65.5545 
48.8377 87.8103 65.7833 
48.9094 88.0665 65.9988 
49.0009 88.3104 66.1966 
49.1275 88.5468 66.3734 
49.268 88.7801 66.5362 
49.4187 89.004 66.6833 
49.5793 89.2241 66.8161 
49.7467 89.4331 66.936 
49.9195 89.6371 67.0435 
50.0991 89.8348 67.1385 
50.2869 90.023 67.2221 
50.4905 90.1873 67.279 
50.7044 90.3341 67.3153 
50.9219 90.4747 67.3437 
51.1451 90.5943 67.3526 
51.3717 90.7006 67.3446 
51.5985 90.7963 67.3311 
51.8245 90.8634 67.2875 
52.0503 90.9262 67.2384 
52.2732 90.9736 67.1763 
52.4926 91.0069 67.1027 
52.7072 91.0245 67.016 
52.9168 91.0288 66.9205 
53.1201 91.0129 66.813 
53.3183 90.9835 66.6984 
53.5181 90.9583 66.5856 
53.7053 90.9056 66.4595 
53.8836 90.8372 66.3264 
54.0579 90.7641 66.1899 
54.2134 90.6673 66.0413 
54.3701 90.5706 65.894 
54.5052 90.4511 65.7356 
54.6344 90.3286 65.5736 
54.755 90.1995 65.408 
54.8621 90.0588 65.2363 
54.9542 89.9115 65.0602 
55.0333 89.7522 64.8792 
55.1076 89.592 64.6978 
55.1425 89.4094 64.5132 
55.1531 89.2161 64.3304 
55.1199 89.0022 64.159 
55.0679 88.7854 63.9935 
54.9789 88.5661 63.8366 
54.8393 88.3388 63.7109 
54.6789 88.1168 63.5903 
54.482 87.8991 63.4928 
54.2686 87.6845 63.4048 
54.0404 87.475 63.3235 
53.7975 87.2648 63.2461 
53.5464 87.0583 63.1675 
53.2841 86.8458 63.0913 
53.0136 86.6327 63.0147 
52.7336 86.4207 62.9433 
52.4424 86.2136 62.8754 
52.1305 86.0152 62.8256 
51.792 85.843 62.8134 
51.4317 85.7102 62.8473 
51.0597 85.6587 62.9573 
50.6986 85.6672 63.1171 
50.5481 85.9702 62.7694 
50.2137 86.0446 62.9742 
49.9139 86.1633 63.2062 
49.6619 86.3222 63.458 
49.4283 86.4974 63.7142 
49.2289 86.6902 63.9734 
49.067 86.8985 64.2339 
48.9342 87.1204 64.4923 
48.8489 87.3548 64.7504 
48.8007 87.5963 65.0033 
48.7928 87.8417 65.2434 
48.8143 88.0887 65.4738 
48.8635 88.3283 65.6952 
48.9448 88.5674 65.9001 
49.0556 88.7988 66.0851 
49.1713 89.0266 66.2656 
49.3156 89.2492 66.4195 
49.4674 89.4602 66.5666 
49.6325 89.6685 66.6926 
49.8067 89.8669 66.8062 
49.9921 90.0554 66.8989 
50.1896 90.2306 66.9811 
50.3939 90.3976 67.0469 
50.6071 90.5436 67.0909 
50.8272 90.6721 67.1184 
51.0502 90.793 67.136 
51.2753 90.9005 67.1383 
51.5028 90.9936 67.1269 
51.7301 91.069 67.0975 
51.9567 91.129 67.05 
52.1783 91.1627 66.9786 
52.4003 91.1958 66.907 
52.6144 91.209 66.8185 
52.8244 91.2053 66.7189 
53.0278 91.1885 66.6102 
53.224 91.1546 66.4914 
53.4182 91.1177 66.3715 
53.6082 91.0702 66.2467 
53.7911 91.0109 66.1162 
53.9639 90.9354 65.9776 
54.1272 90.848 65.8326 
54.2869 90.7562 65.6855 
54.43 90.6473 65.5284 
54.5575 90.5245 65.3657 
54.6756 90.3973 65.1985 
54.776 90.2572 65.0247 
54.8637 90.1099 64.8479 
54.9313 89.9511 64.666 
54.9839 89.7868 64.4829 
55.0054 89.6058 64.2975 
55.0113 89.4176 64.1158 
54.9799 89.2155 63.9373 
54.9212 89.0039 63.768 
54.8329 88.7892 63.6108 
54.7063 88.5716 63.4665 
54.5479 88.3532 63.3391 
54.3605 88.1394 63.2272 
54.1511 87.9307 63.1265 
53.9208 87.7236 63.0399 
53.6777 87.5215 62.9566 
53.4229 87.3181 62.8751 
53.1583 87.1152 62.793 
52.8879 86.9109 62.7123 
52.6055 86.7071 62.6329 
52.3132 86.5023 62.5604 
51.9983 86.3112 62.5042 
51.6619 86.1339 62.4724 
51.2914 86.0161 62.5111 
50.914 85.9608 62.6107 
50.5481 85.9703 62.7694 
50.4159 86.309 62.4474 
50.0791 86.3769 62.6487 
49.7773 86.4863 62.8777 
49.5209 86.6361 63.1317 
49.3155 86.8157 63.3997 
49.1336 87.0096 63.6674 
48.9927 87.2171 63.9331 
48.8887 87.4361 64.1964 
48.8206 87.6646 64.4551 
48.7824 87.8951 64.7093 
48.7739 88.1301 64.9503 
48.795 88.3635 65.1798 
48.8304 88.5972 65.4054 
48.8953 88.8289 65.6149 
48.9753 89.0546 65.8149 
49.0893 89.2768 65.9947 
49.2135 89.4934 66.1662 
49.3603 89.7041 66.3173 
49.525 89.9074 66.4495 
49.7078 90.0951 66.5592 
49.8964 90.2794 66.6633 
50.0961 90.4513 66.7428 
50.3006 90.6117 66.8171 
50.5144 90.7547 66.8684 
50.7343 90.8857 66.9053 
50.9567 91.0077 66.9323 
51.1812 91.1214 66.9525 
51.4089 91.2105 66.9408 
51.6386 91.2874 66.9178 
51.8679 91.3461 66.8738 
52.091 91.3728 66.7982 
52.3133 91.4008 66.7231 
52.5259 91.4002 66.6256 
52.7385 91.3995 66.5281 
52.9413 91.3774 66.4151 
53.1414 91.3495 66.2982 
53.3335 91.3059 66.1727 
53.5202 91.2522 66.043 
53.7043 91.1923 65.9101 
53.8866 91.1285 65.7761 
54.0532 91.0444 65.6311 
54.2144 90.9536 65.4826 
54.3615 90.8484 65.3269 
54.4951 90.7328 65.1632 
54.6138 90.6069 64.9956 
54.7075 90.4648 64.8189 
54.7835 90.3167 64.6374 
54.8521 90.1622 64.4561 
54.8844 89.9928 64.2706 
54.8846 89.8117 64.0861 
54.8783 89.6268 63.9026 
54.8495 89.4321 63.7216 
54.7996 89.2335 63.5447 
54.7062 89.0219 63.3837 
54.5818 88.8116 63.2307 
54.4201 88.5998 63.0946 
54.2401 88.389 62.9698 
54.0344 88.1838 62.858 
53.8075 87.9809 62.762 
53.5678 87.7823 62.6666 
53.316 87.5831 62.5796 
53.0492 87.3859 62.4918 
52.7743 87.1885 62.4064 
52.4915 86.9916 62.3226 
52.1951 86.7964 62.2451 
51.8748 86.6151 62.1875 
51.5305 86.4564 62.1587 
51.1599 86.3401 62.1863 
50.7822 86.2991 62.2934 
50.4159 86.3091 62.4474 
50.3021 86.6733 62.1523 
49.9656 86.7364 62.3486 
49.6706 86.8416 62.5794 
49.4167 86.9785 62.8341 
49.2156 87.151 63.104 
49.0522 87.3406 63.3792 
48.9391 87.5449 63.6494 
48.8392 87.7552 63.9166 
48.7882 87.9726 64.1763 
48.7591 88.1964 64.4288 
48.7511 88.4163 64.671 
48.7621 88.6412 64.9048 
48.7945 88.8684 65.1284 
48.8481 89.0909 65.3399 
48.9189 89.312 65.5434 
49.0077 89.5291 65.7358 
49.1287 89.7422 65.9096 
49.2696 89.9482 66.0666 
49.4387 90.1456 66.2025 
49.6168 90.329 66.3202 
49.8075 90.5081 66.423 
50.0086 90.6719 66.5119 
50.2134 90.8308 66.5894 
50.4273 90.9757 66.6482 
50.6428 91.1099 66.7029 
50.8646 91.2302 66.7329 
51.089 91.3428 66.7594 
51.3179 91.4377 66.7647 
51.5495 91.5131 66.7444 
51.7809 91.5716 66.7042 
52.008 91.602 66.6324 
52.2332 91.6225 66.5521 
52.4526 91.6272 66.4584 
52.6647 91.6207 66.3548 
52.8679 91.5929 66.2356 
53.0653 91.5565 66.1117 
53.2587 91.512 65.9842 
53.4501 91.462 65.8532 
53.6333 91.3993 65.7186 
53.8176 91.3346 65.5817 
53.9915 91.2547 65.4362 
54.1571 91.1682 65.2892 
54.3046 91.063 65.1311 
54.4466 90.9529 64.9688 
54.5544 90.8204 64.7936 
54.6546 90.6841 64.6159 
54.7259 90.5341 64.4333 
54.7786 90.3764 64.2466 
54.7968 90.2065 64.0592 
54.7965 90.0302 63.8723 
54.7795 89.8475 63.6862 
54.7389 89.6584 63.503 
54.6821 89.4603 63.3259 
54.5863 89.2623 63.1576 
54.4562 89.0558 62.9998 
54.3013 88.8501 62.8574 
54.1221 88.6462 62.7235 
53.924 88.4441 62.5987 
53.6998 88.2486 62.4912 
53.4626 88.0515 62.3881 
53.2112 87.8571 62.2921 
52.9447 87.6641 62.1999 
52.6739 87.4737 62.1077 
52.3853 87.2841 62.0193 
52.0776 87.1046 61.9449 
51.7599 86.93 61.8785 
51.4075 86.7926 61.8623 
51.036 86.6988 61.9012 
50.6615 86.657 61.9972 
50.3021 86.6734 62.1523 
50.205 87.056 61.892 
49.8739 87.1113 62.0795 
49.5829 87.2094 62.3073 
49.3397 87.3421 62.5624 
49.1396 87.4992 62.8315 
48.9769 87.673 63.1071 
48.8615 87.8687 63.3789 
48.785 88.0706 63.6508 
48.7457 88.2838 63.9086 
48.7198 88.4912 64.163 
48.7186 88.7052 64.4024 
48.7253 88.9226 64.6377 
48.7483 89.1376 64.8652 
48.7968 89.3546 65.0771 
48.8477 89.5705 65.2872 
48.9508 89.7805 65.4723 
49.0556 89.9903 65.6567 
49.1992 90.1924 65.8129 
49.3576 90.3841 65.9556 
49.5405 90.564 66.0758 
49.7278 90.7392 66.1871 
49.925 90.903 66.2824 
50.1314 91.0583 66.3633 
50.3385 91.2044 66.4408 
50.5532 91.3404 66.499 
50.7722 91.4673 66.5524 
50.997 91.5779 66.5811 
51.2281 91.6741 66.593 
51.4615 91.7529 66.5803 
51.7001 91.8098 66.5407 
51.9308 91.8432 66.4748 
52.1573 91.8549 66.3874 
52.3783 91.8605 66.2937 
52.5898 91.8407 66.1795 
52.7975 91.817 66.0625 
52.9974 91.78 65.9348 
53.1903 91.7306 65.8025 
53.3831 91.6797 65.6686 
53.5707 91.6155 65.5292 
53.7566 91.5513 65.3917 
53.9298 91.4704 65.2458 
54.1059 91.3902 65.0989 
54.2594 91.2877 64.9401 
54.4017 91.177 64.7757 
54.5172 91.0485 64.6 
54.6129 90.9104 64.4181 
54.6822 90.7606 64.2282 
54.7275 90.6012 64.0382 
54.7479 90.4339 63.8495 
54.7461 90.2609 63.6583 
54.7133 90.0795 63.4699 
54.6629 89.8909 63.2862 
54.5844 89.7016 63.1064 
54.479 89.5041 62.9366 
54.3412 89.309 62.7781 
54.1879 89.1093 62.6284 
54.0067 88.9153 62.4868 
53.8079 88.7166 62.359 
53.5938 88.5205 62.2326 
53.3554 88.3304 62.1245 
53.1057 88.1398 62.0211 
52.8441 87.9555 61.919 
52.5699 87.7705 61.8214 
52.2827 87.5871 61.7272 
51.9759 87.4173 61.6487 
51.6462 87.263 61.5941 
51.2932 87.1403 61.5851 
50.9248 87.0626 61.6295 
50.557 87.0382 61.7399 
50.205 87.0561 61.8919 
50.1141 87.4373 61.6435 
49.7901 87.4907 61.8308 
49.5141 87.5881 62.0628 
49.272 87.7078 62.3131 
49.0632 87.8499 62.5793 
48.9144 88.0165 62.8541 
48.7995 88.1951 63.1263 
48.7239 88.3879 63.3955 
48.6792 88.587 63.656 
48.6417 88.7858 63.913 
48.6402 88.9931 64.1547 
48.6503 89.1976 64.3889 
48.6792 89.409 64.6139 
48.723 89.6183 64.8281 
48.7855 89.8288 65.0352 
48.8709 90.0364 65.2274 
48.9893 90.2404 65.4032 
49.1323 90.4344 65.561 
49.2933 90.6222 65.7053 
49.4679 90.802 65.8344 
49.6528 90.9744 65.9518 
49.8504 91.1343 66.0506 
50.0494 91.2913 66.147 
50.255 91.4384 66.2306 
50.4644 91.5787 66.3063 
50.6817 91.7052 66.3657 
50.9074 91.8191 66.4053 
51.1388 91.924 66.4339 
51.3772 91.9925 66.4118 
51.6189 92.0481 66.3744 
51.8528 92.0865 66.3153 
52.0819 92.0977 66.2259 
52.307 92.095 66.1238 
52.5212 92.0785 66.0106 
52.731 92.0509 65.8885 
52.9323 92.0114 65.7593 
53.1281 91.9601 65.6238 
53.321 91.9042 65.4861 
53.5116 91.844 65.3464 
53.7001 91.7768 65.2043 
53.8851 91.7045 65.0608 
54.06 91.6194 64.9117 
54.2277 91.5257 64.7563 
54.3664 91.4099 64.5845 
54.499 91.2907 64.4106 
54.5806 91.1436 64.2185 
54.6548 90.9944 64.0279 
54.7063 90.8388 63.835 
54.72 90.6717 63.6383 
54.7107 90.4978 63.4431 
54.6573 90.3175 63.2536 
54.5869 90.1333 63.0685 
54.5017 89.9453 62.8879 
54.382 89.7562 62.7178 
54.2386 89.5662 62.5581 
54.0774 89.3775 62.4052 
53.8928 89.1846 62.2638 
53.6922 88.9976 62.1273 
53.4759 88.8092 61.9985 
53.245 88.6211 61.8792 
52.9993 88.4388 61.7647 
52.7401 88.2561 61.6554 
52.4634 88.0799 61.5549 
52.1785 87.9082 61.4586 
51.8691 87.7483 61.3814 
51.5355 87.6119 61.3346 
51.1831 87.5063 61.3308 
50.8183 87.4312 61.3715 
50.4589 87.4156 61.4891 
50.1141 87.4374 61.6434 
50.0394 87.8267 61.4256 
49.7319 87.8816 61.6175 
49.4586 87.9721 61.8461 
49.2154 88.0785 62.0872 
49.019 88.2121 62.3509 
48.8636 88.3659 62.6212 
48.7399 88.5256 62.8881 
48.636 88.6963 63.1571 
48.5803 88.8829 63.417 
48.5445 89.0741 63.671 
48.534 89.2712 63.9183 
48.5515 89.4739 64.1504 
48.5862 89.6781 64.3752 
48.6414 89.8839 64.5887 
48.7159 90.0891 64.7891 
48.8136 90.29 64.9796 
48.9309 90.4891 65.1566 
49.0656 90.6829 65.3212 
49.2298 90.8645 65.4633 
49.4007 91.043 65.5986 
49.5842 91.2115 65.7198 
49.7741 91.3757 65.831 
49.9673 91.5332 65.9383 
50.169 91.6804 66.0311 
50.3764 91.8219 66.1121 
50.5931 91.951 66.1812 
50.8164 92.0688 66.2333 
51.0516 92.1729 66.2631 
51.2956 92.2465 66.2531 
51.5379 92.3035 66.2171 
51.7778 92.3349 66.1524 
52.0124 92.349 66.0668 
52.2346 92.3374 65.9571 
52.455 92.3205 65.843 
52.6628 92.2862 65.7154 
52.8676 92.2453 65.583 
53.0651 92.1925 65.4443 
53.2624 92.1402 65.306 
53.4558 92.0783 65.1638 
53.6463 92.0102 65.0196 
53.8349 91.9387 64.8746 
54.0137 91.8554 64.7235 
54.1911 91.7677 64.5687 
54.3416 91.6558 64.397 
54.4793 91.5362 64.2209 
54.5719 91.3925 64.0267 
54.6552 91.2459 63.8343 
54.6847 91.0814 63.6313 
54.7032 90.9144 63.4299 
54.6759 90.7408 63.2288 
54.6162 90.5621 63.0365 
54.5324 90.3821 62.8487 
54.4308 90.1988 62.6694 
54.3024 90.0148 62.4993 
54.1442 89.8289 62.342 
53.9768 89.6483 62.187 
53.786 89.4656 62.0433 
53.5811 89.2854 61.9076 
53.3617 89.104 61.7766 
53.1303 88.9231 61.6512 
52.89 88.745 61.5304 
52.6288 88.5745 61.4185 
52.361 88.4025 61.31 
52.0719 88.2403 61.2108 
51.7646 88.0906 61.1326 
51.4326 87.9686 61.094 
51.0812 87.8805 61.1058 
50.7238 87.8243 61.1632 
50.3768 87.8089 61.2729 
50.0394 87.8268 61.4256 
49.9805 88.2228 61.2356 
49.6803 88.2756 61.4269 
49.4137 88.3537 61.6445 
49.183 88.457 61.8883 
48.9829 88.5764 62.1411 
48.8112 88.7093 62.401 
48.6617 88.8509 62.6635 
48.5422 89.0065 62.9277 
48.4583 89.1729 63.1887 
48.4221 89.3592 63.4424 
48.4018 89.5481 63.6925 
48.4164 89.7457 63.9298 
48.4602 89.9462 64.1547 
48.523 90.1507 64.3674 
48.6199 90.3523 64.5633 
48.7196 90.5521 64.7535 
48.8509 90.7453 64.9258 
48.9957 90.9335 65.0873 
49.1564 91.1146 65.2349 
49.3275 91.2898 65.3711 
49.5049 91.4605 65.501 
49.6878 91.6255 65.6265 
49.8812 91.7819 65.7342 
50.0787 91.9328 65.8385 
50.2842 92.076 65.9311 
50.4987 92.2079 66.0076 
50.7294 92.3276 66.0659 
50.9677 92.4287 66.0973 
51.2119 92.5067 66.094 
51.4596 92.5661 66.066 
51.7006 92.586 65.9874 
51.9408 92.5999 65.9019 
52.1669 92.5851 65.7882 
52.3872 92.5666 65.6714 
52.5993 92.5305 65.5414 
52.8038 92.4859 65.4067 
53.0059 92.4346 65.2673 
53.2037 92.3791 65.1254 
53.3986 92.316 64.9819 
53.5944 92.2511 64.8361 
53.7846 92.1802 64.69 
53.975 92.1018 64.5397 
54.153 92.0118 64.3819 
54.3064 91.9013 64.2066 
54.4427 91.779 64.0235 
54.5625 91.6488 63.8367 
54.6441 91.5005 63.6352 
54.6853 91.3375 63.4281 
54.6874 91.169 63.2181 
54.6559 90.9923 63.0123 
54.5848 90.814 62.817 
54.4972 90.6342 62.6251 
54.3754 90.455 62.4454 
54.2346 90.2752 62.2773 
54.0647 90.0986 62.1215 
53.8772 89.9264 61.9739 
53.6866 89.7509 61.8297 
53.4745 89.5778 61.6953 
53.2514 89.4049 61.5643 
53.0192 89.2321 61.4372 
52.7785 89.0625 61.3144 
52.5179 88.8962 61.1987 
52.251 88.7358 61.0897 
51.9599 88.5876 60.9987 
51.6554 88.4506 60.9273 
51.3305 88.3349 60.8876 
50.9897 88.2677 60.9163 
50.6419 88.2201 60.9809 
50.3006 88.2089 61.0925 
49.9805 88.2229 61.2356 
49.925 88.6169 61.0672 
49.644 88.6683 61.2588 
49.3801 88.7374 61.4682 
49.1492 88.8294 61.7024 
48.942 88.9359 61.9476 
48.7577 89.056 62.1984 
48.591 89.1817 62.4498 
48.439 89.3137 62.7043 
48.3321 89.4656 62.9645 
48.2764 89.6388 63.2238 
48.2418 89.8198 63.4792 
48.26 90.0156 63.7201 
48.314 90.2166 63.9428 
48.3914 90.4203 64.1569 
48.4927 90.621 64.3524 
48.6167 90.8178 64.5351 
48.7549 91.0092 64.7093 
48.9103 91.1924 64.8652 
49.0666 91.375 65.0206 
49.2388 91.5475 65.1613 
49.4138 91.7177 65.2989 
49.5999 91.8794 65.422 
49.7895 92.0378 65.5415 
49.9849 92.191 65.6538 
50.1892 92.3357 65.7517 
50.405 92.4719 65.8377 
50.6421 92.5866 65.8899 
50.8809 92.692 65.9305 
51.1296 92.7729 65.9357 
51.3833 92.8248 65.8976 
51.6314 92.8505 65.8284 
51.8695 92.8509 65.7317 
52.0974 92.836 65.6181 
52.3199 92.8112 65.4963 
52.5339 92.776 65.3654 
52.7408 92.7287 65.2269 
52.9441 92.6784 65.0873 
53.1441 92.6222 64.9441 
53.3435 92.5599 64.7984 
53.5392 92.4943 64.6525 
53.7353 92.425 64.5028 
53.9263 92.3473 64.3494 
54.1102 92.2624 64.1902 
54.278 92.1601 64.0186 
54.4286 92.044 63.8385 
54.5372 91.9046 63.6386 
54.6291 91.7588 63.4354 
54.6636 91.5942 63.2203 
54.6754 91.4261 63.0079 
54.629 91.2489 62.7976 
54.5697 91.071 62.5912 
54.4683 90.8925 62.3969 
54.3426 90.7142 62.2149 
54.1806 90.5416 62.0484 
53.9948 90.3717 61.8985 
53.8032 90.2031 61.7518 
53.5948 90.0372 61.6149 
53.376 89.8712 61.4833 
53.1494 89.7067 61.3548 
52.9169 89.5417 61.2278 
52.6722 89.3803 61.1075 
52.4133 89.2227 60.9926 
52.1426 89.0726 60.8873 
51.857 88.9322 60.7979 
51.5539 88.8061 60.731 
51.234 88.7058 60.7043 
50.8952 88.6401 60.7351 
50.5615 88.5982 60.7947 
50.2325 88.5909 60.9071 
49.925 88.617 61.0672 
49.8832 89.0054 60.9146 
49.6081 89.0522 61.099 
49.3498 89.1169 61.3049 
49.1146 89.1994 61.5271 
48.8983 89.2934 61.7592 
48.6965 89.3964 61.997 
48.5002 89.5018 62.2348 
48.3354 89.6246 62.4855 
48.2027 89.7626 62.7437 
48.1096 89.9175 63.0076 
48.0711 90.0957 63.27 
48.0813 90.2883 63.5175 
48.1406 90.4906 63.7498 
48.2411 90.6957 63.9564 
48.3643 90.8956 64.1483 
48.5038 91.0886 64.3267 
48.6483 91.2784 64.4991 
48.8039 91.4623 64.6626 
48.9648 91.6419 64.8198 
49.1378 91.8138 64.9647 
49.3162 91.9815 65.1027 
49.4997 92.1455 65.2349 
49.6903 92.3039 65.359 
49.8891 92.4546 65.4712 
50.0975 92.5992 65.5738 
50.3162 92.7342 65.6624 
50.5546 92.846 65.7131 
50.7929 92.9579 65.7632 
51.0507 93.0332 65.7596 
51.3075 93.084 65.7247 
51.558 93.11 65.6589 
51.7983 93.1057 65.5569 
52.0312 93.0895 65.4442 
52.251 93.058 65.3168 
52.4688 93.0228 65.1864 
52.6771 92.9757 65.0475 
52.8822 92.9235 64.9055 
53.0845 92.8675 64.7615 
53.2855 92.8061 64.6158 
53.4857 92.7425 64.4681 
53.6841 92.6747 64.3179 
53.8752 92.5963 64.1609 
54.0626 92.5129 63.9982 
54.2418 92.4194 63.8273 
54.3982 92.3079 63.6453 
54.5249 92.1745 63.4448 
54.6108 92.025 63.2325 
54.6581 91.8634 63.0164 
54.6629 91.6917 62.7927 
54.6167 91.5145 62.5807 
54.5557 91.3364 62.3662 
54.444 91.156 62.1693 
54.3099 90.9792 61.9813 
54.1388 90.8086 61.8158 
53.9441 90.6437 61.6664 
53.7381 90.482 61.5255 
53.5223 90.3213 61.3914 
53.2921 90.1653 61.2661 
53.0599 90.0065 61.1406 
52.8213 89.8504 61.0184 
52.5733 89.6964 60.9017 
52.3108 89.5497 60.7952 
52.0406 89.4081 60.697 
51.7548 89.2792 60.617 
51.4539 89.1662 60.5621 
51.1425 89.0681 60.5298 
50.815 89.0082 60.5599 
50.492 88.9752 60.6302 
50.1773 88.9762 60.7517 
49.8832 89.0054 60.9146 
49.8409 89.384 60.7654 
49.567 89.4266 60.943 
49.3108 89.485 61.14 
49.0753 89.5625 61.3551 
48.8471 89.6455 61.5742 
48.6246 89.7327 61.7957 
48.4183 89.8304 62.0269 
48.231 89.9392 62.2687 
48.0688 90.0622 62.5235 
47.9501 90.2062 62.7892 
47.8884 90.375 63.0604 
47.9199 90.5738 63.3125 
47.9752 90.7769 63.5519 
48.09 90.9797 63.7587 
48.2259 91.1776 63.9516 
48.3731 91.371 64.133 
48.5324 91.5554 64.3008 
48.6922 91.7393 64.468 
48.8635 91.9127 64.6212 
49.0347 92.086 64.7743 
49.2148 92.2521 64.9133 
49.402 92.4136 65.0475 
49.595 92.5709 65.1725 
49.8002 92.7186 65.2837 
50.008 92.864 65.3886 
50.2347 92.993 65.4685 
50.4703 93.1111 65.5313 
50.7192 93.2117 65.5663 
50.9759 93.2857 65.5653 
51.2338 93.3488 65.5477 
51.485 93.3609 65.4689 
51.7345 93.3671 65.3845 
51.9639 93.3424 65.2649 
52.1885 93.3115 65.1403 
52.402 93.2684 65.0039 
52.6144 93.2239 64.8665 
52.8193 93.1702 64.7228 
53.0234 93.1146 64.5777 
53.2257 93.0556 64.4311 
53.428 92.994 64.2825 
53.6273 92.9279 64.1314 
53.8228 92.8532 63.9715 
54.0164 92.7745 63.809 
54.1952 92.6798 63.6362 
54.3627 92.5764 63.4507 
54.4873 92.4442 63.246 
54.5894 92.3007 63.0315 
54.644 92.1395 62.8053 
54.648 91.9675 62.5812 
54.607 91.7873 62.3571 
54.5292 91.609 62.1427 
54.4104 91.4311 61.9415 
54.2662 91.256 61.7554 
54.0946 91.0847 61.5837 
53.8946 90.9219 61.4338 
53.6781 90.7635 61.2978 
53.4549 90.6084 61.1657 
53.2186 90.4584 61.0442 
52.9823 90.3049 60.9218 
52.7356 90.1572 60.8056 
52.4861 90.0091 60.6913 
52.226 89.8653 60.5846 
51.951 89.7341 60.4956 
51.6707 89.6063 60.4127 
51.367 89.5092 60.3757 
51.0576 89.4254 60.3598 
50.7413 89.3695 60.3893 
50.426 89.3448 60.4721 
50.1231 89.3501 60.5998 
49.8408 89.3841 60.7654 
49.7873 89.7423 60.6004 
49.5191 89.7873 60.7781 
49.2647 89.8455 60.969 
49.0164 89.9096 61.1687 
48.7814 89.987 61.3805 
48.5502 90.0675 61.594 
48.3315 90.1572 61.8174 
48.1251 90.2559 62.0508 
47.9593 90.3776 62.3046 
47.8126 90.5109 62.5673 
47.7404 90.6798 62.8424 
47.7496 90.8712 63.1073 
47.8241 91.0742 63.3495 
47.9457 91.2745 63.5611 
48.0849 91.4704 63.7604 
48.2396 91.6606 63.9453 
48.4037 91.8432 64.1177 
48.5771 92.0201 64.2792 
48.7543 92.1928 64.4334 
48.9326 92.3635 64.5843 
49.12 92.5247 64.7236 
49.3106 92.6834 64.855 
49.5114 92.8356 64.9769 
49.7181 92.9833 65.088 
49.9308 93.1245 65.1907 
50.1591 93.2516 65.2703 
50.3977 93.3653 65.3281 
50.6465 93.4651 65.3659 
50.9027 93.5371 65.367 
51.1634 93.594 65.3469 
51.4194 93.6218 65.2891 
51.6609 93.6107 65.1885 
51.8992 93.5955 65.082 
52.1191 93.5573 64.9522 
52.3383 93.5184 64.8217 
52.548 93.4694 64.6816 
52.7561 93.4185 64.5396 
52.9606 93.3626 64.393 
53.1641 93.3052 64.2456 
53.3667 93.2443 64.0959 
53.569 93.1813 63.9428 
53.7647 93.1076 63.7817 
53.9591 93.0329 63.618 
54.1369 92.9395 63.4389 
54.3084 92.8405 63.2534 
54.446 92.717 63.0468 
54.5609 92.5793 62.831 
54.6116 92.4187 62.6006 
54.6194 92.2487 62.3674 
54.5807 92.0714 62.1395 
54.4866 91.8921 61.9244 
54.3639 91.7148 61.7208 
54.2155 91.5397 61.5321 
54.0388 91.3698 61.3604 
53.836 91.2073 61.2089 
53.6226 91.0476 61.0663 
53.3936 90.8953 60.9376 
53.1559 90.7466 60.8163 
52.9125 90.6013 60.6986 
52.6661 90.4552 60.5824 
52.4105 90.3145 60.4732 
52.1478 90.1779 60.3714 
51.8741 90.0496 60.2833 
51.5906 89.9311 60.2103 
51.2882 89.838 60.1778 
50.9804 89.7616 60.1713 
50.6683 89.7205 60.2229 
50.3632 89.7058 60.3157 
50.0679 89.714 60.4453 
49.7873 89.7424 60.6004 
49.7301 90.0938 60.4308 
49.4631 90.1375 60.6026 
49.2064 90.1925 60.7893 
48.9545 90.253 60.9814 
48.7103 90.3233 61.1822 
48.4714 90.3979 61.3885 
48.2403 90.4811 61.6029 
48.0321 90.5798 61.8353 
47.8391 90.6905 62.0778 
47.7196 90.8389 62.3477 
47.6118 90.9941 62.621 
47.6324 91.1867 62.8876 
47.6921 91.3834 63.1387 
47.8145 91.5815 63.3616 
47.958 91.7706 63.5662 
48.1171 91.9568 63.7531 
48.2863 92.1359 63.9302 
48.4655 92.3076 64.0935 
48.65 92.4752 64.2472 
48.837 92.6393 64.3925 
49.0308 92.7999 64.5307 
49.2336 92.9496 64.6543 
49.437 93.0984 64.7725 
49.6457 93.2428 64.8839 
49.8656 93.3776 64.9797 
50.0958 93.5026 65.0579 
50.3293 93.6195 65.1262 
50.5813 93.7095 65.1544 
50.8362 93.7836 65.1624 
51.0946 93.8324 65.135 
51.3474 93.8585 65.0806 
51.5933 93.8558 64.9925 
51.8324 93.842 64.8929 
52.0585 93.8105 64.7722 
52.2732 93.7662 64.6373 
52.4851 93.7186 64.4995 
52.6914 93.6656 64.3551 
52.8976 93.6124 64.2107 
53.1005 93.5551 64.0622 
53.3032 93.4971 63.9108 
53.505 93.4339 63.7562 
53.7058 93.3695 63.5966 
53.8975 93.2928 63.4264 
54.0831 93.2106 63.2491 
54.2509 93.1088 63.0568 
54.3994 92.9972 62.852 
54.5063 92.8597 62.627 
54.5608 92.7048 62.3974 
54.5565 92.5344 62.1605 
54.5232 92.3599 61.9297 
54.4301 92.1814 61.7109 
54.3083 92.0043 61.5048 
54.1512 91.8308 61.3175 
53.9724 91.6609 61.1448 
53.7731 91.4973 60.9886 
53.558 91.3391 60.846 
53.3301 91.1864 60.7145 
53.0937 91.0386 60.5907 
52.8495 90.8944 60.4729 
52.5988 90.7548 60.3606 
52.3438 90.616 60.2501 
52.0791 90.4839 60.1516 
51.7991 90.3649 60.0726 
51.5167 90.2474 59.9985 
51.2146 90.1569 59.9677 
50.9053 90.0929 59.9806 
50.5962 90.0564 60.0384 
50.2938 90.0459 60.1375 
50.0068 90.0616 60.2725 
49.7301 90.0938 60.4308 
49.661 90.4284 60.2406 
49.3953 90.4737 60.4123 
49.1354 90.5254 60.5927 
48.8814 90.5854 60.7806 
48.634 90.6532 60.9772 
48.3896 90.7253 61.1769 
48.1573 90.8084 61.3904 
47.936 90.9034 61.6135 
47.7437 91.016 61.8555 
47.604 91.1596 62.1222 
47.5361 91.3274 62.3964 
47.52 91.5109 62.6714 
47.5936 91.7039 62.9239 
47.7002 91.8952 63.1584 
47.845 92.0828 63.3675 
48.0068 92.261 63.563 
48.1774 92.4351 63.7418 
48.3632 92.6013 63.9052 
48.5599 92.7597 64.0525 
48.7571 92.9171 64.1961 
48.9539 93.0713 64.3295 
49.1617 93.2166 64.4524 
49.3707 93.3593 64.5664 
49.589 93.4935 64.6651 
49.81 93.6245 64.7601 
50.04 93.7426 64.8356 
50.2751 93.8568 64.9033 
50.5225 93.9491 64.9377 
50.7727 94.0317 64.9612 
51.0305 94.0826 64.941 
51.2835 94.1052 64.8858 
51.5326 94.1106 64.8105 
51.7647 94.0867 64.7012 
51.9946 94.0585 64.5863 
52.2093 94.0133 64.4525 
52.4215 93.966 64.3164 
52.6287 93.9149 64.1746 
52.8327 93.86 64.0281 
53.0354 93.8049 63.8797 
53.2375 93.748 63.7275 
53.4386 93.6895 63.5711 
53.6385 93.6261 63.4121 
53.8346 93.5595 63.241 
54.0213 93.4796 63.0617 
54.1964 93.3893 62.8693 
54.3435 93.2791 62.6594 
54.4568 93.1472 62.4341 
54.5291 92.9974 62.194 
54.5167 92.8275 61.9557 
54.4689 92.653 61.7201 
54.3677 92.4754 61.502 
54.2372 92.2994 61.2977 
54.0751 92.1266 61.1124 
53.9013 91.9565 60.9353 
53.695 91.7947 60.7845 
53.4857 91.6364 60.6359 
53.2612 91.4834 60.5007 
53.0238 91.3377 60.3773 
52.7822 91.1948 60.2563 
52.5336 91.0548 60.1408 
52.2744 90.9218 60.0349 
52.0102 90.7921 59.9355 
51.7314 90.6733 59.8543 
51.4409 90.5694 59.7981 
51.1411 90.4779 59.7626 
50.8311 90.4194 59.7844 
50.5228 90.3872 59.8485 
50.2224 90.3785 59.9477 
49.936 90.3952 60.0838 
49.661 90.4285 60.2405 
49.5835 90.7521 60.0368 
49.3171 90.7968 60.2069 
49.0576 90.8509 60.3865 
48.8035 90.9114 60.5732 
48.5533 90.9779 60.7651 
48.3095 91.0526 60.9655 
48.0745 91.1366 61.1742 
47.8583 91.2351 61.3989 
47.6622 91.3491 61.6368 
47.5459 91.5001 61.9042 
47.4624 91.6629 62.1772 
47.4437 91.8409 62.4532 
47.4953 92.0278 62.7145 
47.6045 92.2122 62.9512 
47.7416 92.3929 63.1707 
47.9073 92.5686 63.3668 
48.0869 92.7348 63.5449 
48.279 92.8948 63.7079 
48.4783 93.0485 63.8576 
48.6859 93.1958 63.9941 
48.894 93.3376 64.1205 
49.1045 93.4787 64.2406 
49.3213 93.6132 64.3502 
49.541 93.7395 64.4456 
49.7613 93.8678 64.5408 
49.9929 93.9806 64.6099 
50.2231 94.0939 64.6814 
50.4645 94.1888 64.7256 
50.7126 94.2743 64.7553 
50.9691 94.3255 64.7391 
51.2219 94.3514 64.6937 
51.4708 94.3552 64.6187 
51.7058 94.3364 64.5175 
51.9276 94.2999 64.3948 
52.1457 94.2592 64.2684 
52.3558 94.2115 64.132 
52.5629 94.1608 63.9913 
52.7667 94.1085 63.8466 
52.9686 94.0542 63.6984 
53.1697 93.9997 63.5459 
53.3699 93.9423 63.3887 
53.5669 93.8848 63.2272 
53.7582 93.818 63.0518 
53.9507 93.7499 62.8778 
54.1251 93.6612 62.68 
54.2823 93.5644 62.4682 
54.4046 93.4412 62.2427 
54.4668 93.294 61.9964 
54.4457 93.1237 61.7551 
54.3855 92.9483 61.5236 
54.2726 92.7717 61.3106 
54.1449 92.5965 61.1052 
53.9777 92.427 60.9249 
53.8015 92.2586 60.7501 
53.6086 92.0963 60.5907 
53.4014 91.9379 60.4414 
53.1804 91.787 60.303 
52.9496 91.6405 60.1733 
52.7111 91.4987 60.0485 
52.4621 91.3617 59.9328 
52.2072 91.2292 59.8223 
51.9385 91.1069 59.7297 
51.6625 90.9875 59.6424 
51.3705 90.8856 59.586 
51.0661 90.8052 59.5693 
50.7574 90.7498 59.5947 
50.4477 90.7114 59.6482 
50.1491 90.7071 59.7532 
49.8588 90.7187 59.8804 
49.5835 90.7522 60.0367 
49.5032 91.0718 59.8267 
49.2346 91.1154 59.9934 
48.9754 91.1704 60.173 
48.7219 91.233 60.3592 
48.4726 91.3014 60.5506 
48.2295 91.3774 60.7489 
47.9984 91.4652 60.9599 
47.7771 91.562 61.1781 
47.6088 91.6911 61.4275 
47.4768 91.8338 61.687 
47.4041 91.9975 61.962 
47.3913 92.1738 62.2355 
47.4429 92.3545 62.496 
47.5376 92.5321 62.7402 
47.6698 92.7083 62.9652 
47.8389 92.8759 63.1618 
48.0256 93.0341 63.3404 
48.2229 93.1832 63.4976 
48.4216 93.3311 63.6516 
48.6339 93.4683 63.7826 
48.8468 93.6027 63.908 
49.061 93.736 64.024 
49.2773 93.8623 64.1308 
49.4974 93.9877 64.2289 
49.7189 94.1062 64.3193 
49.9462 94.215 64.3926 
50.1749 94.3263 64.4638 
50.4167 94.4201 64.5064 
50.6596 94.4986 64.5332 
50.9099 94.5559 64.5287 
51.162 94.5874 64.4907 
51.409 94.5946 64.4247 
51.643 94.5732 64.3234 
51.8643 94.5408 64.2087 
52.0823 94.5011 64.0842 
52.2931 94.4557 63.951 
52.4972 94.4061 63.8111 
52.6999 94.3546 63.6677 
52.9002 94.3026 63.5192 
53.0996 94.2496 63.3665 
53.2974 94.1971 63.2097 
53.4932 94.1412 63.0468 
53.6858 94.0814 62.8763 
53.8692 94.013 62.6962 
54.0359 93.9319 62.493 
54.189 93.8351 62.2778 
54.3113 93.7243 62.0511 
54.369 93.5818 61.805 
54.3504 93.4152 61.5642 
54.2796 93.2419 61.338 
54.1755 93.0673 61.1232 
54.0323 92.8938 60.9297 
53.8725 92.726 60.7479 
53.6936 92.5613 60.5789 
53.5039 92.4011 60.418 
53.3015 92.2453 60.2661 
53.0895 92.0943 60.1228 
52.8631 91.9502 59.989 
52.627 91.8108 59.8627 
52.3845 91.6759 59.7413 
52.1308 91.5464 59.6308 
51.8623 91.4272 59.5379 
51.584 91.317 59.4598 
51.2949 91.2153 59.4008 
50.9902 91.1396 59.39 
50.6842 91.0764 59.3987 
50.3751 91.0425 59.4581 
50.0734 91.0307 59.5508 
49.7831 91.0429 59.6778 
49.5032 91.0718 59.8266 
49.4271 91.3968 59.6219 
49.1581 91.4401 59.7858 
48.8966 91.4932 59.9611 
48.6409 91.5539 60.1436 
48.3908 91.6219 60.3326 
48.1504 91.7007 60.5319 
47.9249 91.793 60.7438 
47.7274 91.9034 60.974 
47.5465 92.0242 61.2146 
47.4334 92.1731 61.4789 
47.363 92.3328 61.7511 
47.3602 92.507 62.0221 
47.4118 92.6795 62.2811 
47.4965 92.8506 62.5293 
47.6369 93.0165 62.7473 
47.7985 93.1763 62.9482 
47.9779 93.3275 63.1326 
48.1733 93.4733 63.2938 
48.3812 93.6087 63.4388 
48.5931 93.7389 63.5694 
48.8065 93.8675 63.6943 
49.022 93.9926 63.8111 
49.2392 94.1146 63.914 
49.4563 94.2329 64.0159 
49.6782 94.3459 64.1012 
49.9009 94.457 64.1836 
50.1305 94.5604 64.2514 
50.3651 94.6485 64.297 
50.6104 94.7154 64.3083 
50.8553 94.7853 64.3235 
51.1015 94.804 64.2723 
51.3472 94.8213 64.22 
51.5791 94.8065 64.1288 
51.8036 94.7789 64.0216 
52.0201 94.7395 63.8993 
52.2282 94.697 63.7694 
52.4328 94.6498 63.6324 
52.6325 94.599 63.4898 
52.8298 94.5494 63.342 
53.0259 94.4991 63.1907 
53.2217 94.448 63.035 
53.411 94.3952 62.8712 
53.6003 94.3378 62.7001 
53.7804 94.2743 62.5173 
53.9477 94.1998 62.3176 
54.0801 94.1082 62.0987 
54.1849 93.9938 61.868 
54.2092 93.8471 61.6251 
54.2335 93.7004 61.3821 
54.1569 93.5291 61.161 
54.039 93.3574 60.9607 
53.9027 93.1867 60.7713 
53.7443 93.0222 60.5947 
53.5744 92.8599 60.4237 
53.3915 92.7025 60.2629 
53.1925 92.551 60.1109 
52.9921 92.4022 59.9585 
52.7703 92.2606 59.8244 
52.5444 92.1235 59.6878 
52.303 91.991 59.5665 
52.0498 91.869 59.4549 
51.7847 91.7522 59.3593 
51.5067 91.646 59.2831 
51.2198 91.5477 59.2232 
50.9188 91.4691 59.2005 
50.6121 91.4073 59.2105 
50.3038 91.3709 59.2627 
50.0006 91.3591 59.3527 
49.7102 91.3713 59.4783 
49.4271 91.3968 59.6219 
49.3535 91.723 59.4164 
49.0854 91.7678 59.5818 
48.8197 91.816 59.7497 
48.5648 91.8773 59.9304 
48.3146 91.9457 60.1185 
48.0822 92.0295 60.3212 
47.8628 92.1251 60.5349 
47.6701 92.2376 60.7667 
47.5145 92.3659 61.0141 
47.3903 92.5077 61.274 
47.3376 92.6679 61.5454 
47.3452 92.833 61.8124 
47.4001 93.001 62.0693 
47.4876 93.1653 62.3139 
47.6132 93.3253 62.5369 
47.7684 93.475 62.7405 
47.9473 93.6205 62.9229 
48.1468 93.7523 63.081 
48.3525 93.8834 63.2275 
48.5612 94.0056 63.3606 
48.7736 94.1317 63.4869 
48.9857 94.252 63.6017 
49.1995 94.3699 63.712 
49.4169 94.4826 63.8089 
49.6348 94.5927 63.9014 
49.8592 94.6962 63.9757 
50.0839 94.7953 64.0472 
50.3177 94.8801 64.0923 
50.5585 94.954 64.1178 
50.8026 95.0021 64.1093 
51.0472 95.038 64.0841 
51.2867 95.0457 64.0223 
51.5195 95.0353 63.9374 
51.7405 95.0091 63.832 
51.955 94.9744 63.7143 
52.1645 94.9348 63.5904 
52.3637 94.8885 63.4536 
52.5635 94.8399 63.3148 
52.7592 94.7917 63.1672 
52.9523 94.7436 63.0189 
53.1445 94.6947 62.8634 
53.3318 94.6441 62.6983 
53.5113 94.5895 62.527 
53.6814 94.525 62.3419 
53.8366 94.4549 62.1434 
53.9491 94.3573 61.9231 
54.0483 94.251 61.6958 
54.1044 94.1256 61.4544 
54.0674 93.9676 61.2274 
54.0123 93.8038 61.0051 
53.8926 93.6378 60.8127 
53.7637 93.4736 60.6263 
53.6119 93.3118 60.4516 
53.4466 93.1547 60.2828 
53.2717 93.0019 60.1193 
53.0841 92.8559 59.9625 
52.8855 92.71 59.8117 
52.6758 92.5717 59.6656 
52.4503 92.4407 59.5325 
52.2157 92.3112 59.407 
51.9665 92.1918 59.2949 
51.7068 92.0812 59.1939 
51.433 91.975 59.1104 
51.1448 91.8818 59.0535 
50.8484 91.8011 59.0203 
50.5426 91.7451 59.0326 
50.2338 91.703 59.0724 
49.9307 91.6911 59.1598 
49.6363 91.6979 59.2756 
49.3534 91.7231 59.4164 
49.2894 92.0598 59.2278 
49.0153 92.0954 59.38 
48.7518 92.1458 59.5489 
48.493 92.2021 59.7222 
48.2528 92.2767 59.916 
48.0208 92.361 60.1181 
47.8239 92.4652 60.3417 
47.63 92.5739 60.569 
47.4851 92.7037 60.8193 
47.3795 92.8454 61.0819 
47.3374 93.0008 61.3494 
47.3434 93.159 61.6124 
47.3829 93.3188 61.8706 
47.4758 93.4764 62.1113 
47.6038 93.6249 62.3309 
47.758 93.7701 62.533 
47.9314 93.9056 62.7154 
48.1265 94.0336 62.8751 
48.3251 94.1568 63.0246 
48.5323 94.2778 63.158 
48.7397 94.3975 63.287 
48.9487 94.5145 63.4053 
49.1593 94.628 63.5175 
49.3734 94.7386 63.6193 
49.5908 94.8433 63.7093 
49.8113 94.9441 63.7905 
50.0357 95.0381 63.859 
50.2699 95.1183 63.9013 
50.5069 95.1847 63.9254 
50.7508 95.2351 63.9216 
50.9919 95.265 63.8921 
51.2294 95.273 63.8307 
51.4583 95.264 63.7505 
51.68 95.2396 63.6497 
51.8911 95.2061 63.5354 
52.0988 95.1667 63.4113 
52.2977 95.1214 63.2751 
52.494 95.0766 63.1414 
52.6854 95.0312 62.9965 
52.8775 94.9855 62.8491 
53.0633 94.9366 62.6945 
53.2406 94.8849 62.5279 
53.413 94.8319 62.355 
53.5728 94.7686 62.1703 
53.7151 94.6955 61.9734 
53.8203 94.6017 61.7549 
53.8956 94.4949 61.5321 
53.9249 94.3663 61.3035 
53.91 94.2213 61.0783 
53.8423 94.0663 60.8718 
53.7419 93.9052 60.6776 
53.6192 93.7485 60.4972 
53.4754 93.5936 60.3209 
53.3228 93.444 60.1494 
53.1533 93.2969 59.9857 
52.9726 93.1534 59.8267 
52.7822 93.017 59.6734 
52.5757 92.882 59.5256 
52.3591 92.7552 59.3873 
52.1273 92.6322 59.26 
51.8846 92.5163 59.1394 
51.629 92.4067 59.0364 
51.3591 92.306 58.9528 
51.0765 92.2154 58.8856 
50.782 92.1384 58.8503 
50.475 92.088 58.8696 
50.1693 92.0449 58.8995 
49.8652 92.0279 58.9758 
49.571 92.0335 59.0871 
49.2894 92.0599 59.2278 
49.2323 92.4001 59.0504 
48.9607 92.4342 59.201 
48.7005 92.4847 59.3667 
48.4452 92.5417 59.5394 
48.2044 92.6132 59.7292 
47.987 92.702 59.936 
47.7747 92.7973 60.1485 
47.6115 92.916 60.3905 
47.4828 93.0427 60.639 
47.3802 93.1811 60.8995 
47.3531 93.3265 61.1625 
47.345 93.4792 61.4272 
47.3905 93.6299 61.6786 
47.4857 93.7777 61.9111 
47.6026 93.9196 62.1335 
47.7545 94.0573 62.3329 
47.9199 94.1884 62.5174 
48.1061 94.3151 62.681 
48.2991 94.4348 62.8317 
48.5002 94.5525 62.9714 
48.7027 94.6677 63.1011 
48.9066 94.7807 63.2256 
49.1154 94.8906 63.338 
49.3275 94.995 63.441 
49.5436 95.0974 63.5341 
49.7656 95.1903 63.6085 
49.9906 95.2777 63.6732 
50.2237 95.3526 63.7115 
50.4594 95.4198 63.7388 
50.6983 95.4635 63.7332 
50.9398 95.4915 63.7033 
51.1717 95.4951 63.642 
51.402 95.4893 63.5671 
51.6214 95.4672 63.4707 
51.8312 95.4342 63.3568 
52.0349 95.3979 63.2383 
52.2338 95.3546 63.1075 
52.424 95.31 62.9695 
52.614 95.2652 62.829 
52.7971 95.2187 62.678 
52.9799 95.1715 62.5282 
53.1508 95.1193 62.3651 
53.3204 95.0643 62.1953 
53.4603 94.9984 62.0112 
53.5938 94.9253 61.8104 
53.6741 94.8299 61.6012 
53.7509 94.7245 61.3838 
53.7595 94.5958 61.1614 
53.7483 94.4644 60.9479 
53.6882 94.3156 60.7429 
53.5885 94.1687 60.5567 
53.479 94.0174 60.3731 
53.3415 93.8684 60.1976 
53.1982 93.7256 60.0269 
53.0363 93.5875 59.864 
52.8569 93.4495 59.7044 
52.6709 93.3172 59.55 
52.4733 93.1927 59.4011 
52.2626 93.0664 59.2591 
52.0424 92.9514 59.1243 
51.8081 92.8382 58.9952 
51.5548 92.7361 58.8924 
51.2841 92.6384 58.8092 
51.0062 92.5532 58.7432 
50.7164 92.4783 58.6977 
50.4125 92.4262 58.7035 
50.1091 92.3923 58.7426 
49.8065 92.3716 58.8082 
49.5156 92.3795 58.9191 
49.2323 92.4002 59.0503 
49.1895 92.7471 58.8987 
48.9219 92.7812 59.0451 
48.6622 92.8275 59.2028 
48.4146 92.8865 59.378 
48.1863 92.959 59.569 
47.9662 93.0452 59.7701 
47.7751 93.1437 59.9881 
47.6102 93.2565 60.2216 
47.4825 93.3779 60.4687 
47.3997 93.5109 60.728 
47.3571 93.6507 60.9875 
47.3534 93.7921 61.2462 
47.3983 93.9376 61.4963 
47.4842 94.0754 61.7285 
47.6041 94.2156 61.947 
47.7441 94.3459 62.1479 
47.9055 94.4749 62.3335 
48.0774 94.5975 62.5052 
48.2654 94.7139 62.6574 
48.4621 94.8301 62.7993 
48.6604 94.9407 62.9318 
48.8632 95.0498 63.0546 
49.0685 95.156 63.1724 
49.2819 95.2556 63.27 
49.4957 95.3545 63.367 
49.7203 95.4387 63.4338 
49.9455 95.5242 63.5006 
50.1775 95.594 63.537 
50.4115 95.6545 63.5607 
50.6499 95.6902 63.5463 
50.8872 95.7152 63.5157 
51.1186 95.7164 63.454 
51.3459 95.7117 63.3842 
51.5631 95.6924 63.2927 
51.771 95.6611 63.1845 
51.9741 95.6249 63.068 
52.1664 95.5838 62.9397 
52.3558 95.5387 62.8041 
52.5404 95.4928 62.6638 
52.7175 95.4464 62.5173 
52.893 95.3981 62.3637 
53.0578 95.3484 62.2041 
53.2143 95.2913 62.0335 
53.3506 95.2252 61.8512 
53.4507 95.1394 61.6491 
53.5404 95.0491 61.4457 
53.6059 94.9506 61.2408 
53.6121 94.8286 61.0302 
53.6032 94.6981 60.8172 
53.5465 94.5651 60.6219 
53.445 94.4185 60.4362 
53.3454 94.2781 60.2528 
53.2178 94.1432 60.0809 
53.078 94.004 59.9094 
52.9182 93.8718 59.7483 
52.7479 93.7444 59.59 
52.5656 93.6141 59.4368 
52.3709 93.4945 59.2849 
52.1687 93.3813 59.1412 
51.9557 93.2673 59.0022 
51.7238 93.1611 58.8747 
51.4754 93.0632 58.768 
51.2139 92.9728 58.6802 
50.9402 92.8939 58.6124 
50.6528 92.8221 58.5687 
50.3554 92.772 58.5661 
50.0543 92.739 58.6006 
49.7571 92.7252 58.6698 
49.4695 92.7286 58.7716 
49.1895 92.7472 58.8987 
49.1634 93.0994 58.7779 
48.8997 93.1319 58.9166 
48.6506 93.1786 59.0765 
48.4144 93.24 59.2522 
48.1853 93.3068 59.4355 
47.9855 93.3912 59.6358 
47.7943 93.4855 59.8513 
47.6328 93.5928 60.0732 
47.5135 93.7137 60.3176 
47.4228 93.8376 60.5659 
47.3689 93.9688 60.8218 
47.3712 94.1061 61.0746 
47.4113 94.2407 61.3183 
47.4868 94.3771 61.5536 
47.5936 94.507 61.7703 
47.7282 94.6361 61.9742 
47.8806 94.7588 62.1598 
48.0475 94.8798 62.3346 
48.2307 94.9946 62.4905 
48.4208 95.1054 62.6372 
48.6178 95.215 62.771 
48.8181 95.3194 62.8974 
49.0235 95.4208 63.0104 
49.233 95.5219 63.1178 
49.4519 95.6112 63.2064 
49.6759 95.6946 63.2739 
49.9032 95.7687 63.3307 
50.1368 95.8245 63.3548 
50.3705 95.8857 63.3834 
50.607 95.9169 63.3657 
50.8414 95.9413 63.3423 
51.0695 95.9435 63.2821 
51.2907 95.9321 63.2038 
51.5081 95.9151 63.1184 
51.7131 95.886 63.0126 
51.9126 95.8516 62.8979 
52.1004 95.8086 62.7704 
52.2885 95.7652 62.6415 
52.469 95.7191 62.4987 
52.6422 95.6717 62.3558 
52.8122 95.623 62.2071 
52.9735 95.5713 62.0477 
53.1183 95.5125 61.8809 
53.2459 95.4437 61.6979 
53.3535 95.3683 61.5093 
53.4368 95.2798 61.3076 
53.4716 95.1739 61.1031 
53.4906 95.0596 60.8957 
53.4588 94.9356 60.6985 
53.4066 94.8054 60.5016 
53.3216 94.6742 60.3163 
53.2229 94.5395 60.1345 
53.0965 94.4092 59.9648 
52.9591 94.2781 59.7978 
52.8069 94.1532 59.6381 
52.6363 94.0289 59.4811 
52.4616 93.9118 59.3301 
52.2724 93.7936 59.1842 
52.0747 93.6874 59.0421 
51.8618 93.5805 58.9028 
51.6373 93.482 58.7773 
51.3977 93.3901 58.6677 
51.1435 93.3053 58.5731 
50.8691 93.2348 58.513 
50.5912 93.1692 58.4647 
50.3017 93.1228 58.4645 
50.0078 93.0915 58.495 
49.7182 93.0771 58.556 
49.4362 93.0831 58.6593 
49.1634 93.0995 58.7779 
49.1496 93.4498 58.6812 
48.8994 93.4807 58.8233 
48.6568 93.5265 58.9813 
48.428 93.5846 59.1457 
48.2088 93.6541 59.3243 
48.0084 93.733 59.5175 
47.8267 93.8233 59.7233 
47.6793 93.9273 59.9449 
47.5427 94.0361 60.1778 
47.4457 94.1574 60.4152 
47.3936 94.2798 60.6648 
47.3902 94.4102 60.9132 
47.4146 94.5391 61.1539 
47.4851 94.6703 61.3852 
47.5791 94.7994 61.6068 
47.7066 94.9234 61.8091 
47.856 95.0445 61.9964 
48.0172 95.1603 62.1723 
48.1938 95.2747 62.3347 
48.3826 95.3817 62.4775 
48.575 95.4896 62.6177 
48.777 95.5889 62.7413 
48.9813 95.6896 62.8572 
49.1941 95.7796 62.9584 
49.4098 95.8682 63.0462 
49.6349 95.9442 63.1122 
49.8636 96.0119 63.1627 
50.0968 96.0686 63.1922 
50.3317 96.1158 63.2082 
50.5639 96.1397 63.1864 
50.7965 96.1615 63.1601 
51.0232 96.1657 63.1072 
51.2429 96.1566 63.0377 
51.4567 96.1377 62.9492 
51.66 96.1086 62.8468 
51.8533 96.0714 62.7319 
52.0416 96.0309 62.6083 
52.2267 95.988 62.4817 
52.3992 95.9421 62.3446 
52.5702 95.8944 62.2015 
52.7361 95.8451 62.0571 
52.8838 95.7885 61.8951 
53.0256 95.7299 61.7305 
53.1446 95.6602 61.5525 
53.2494 95.5845 61.3682 
53.3212 95.4965 61.1761 
53.364 95.397 60.9729 
53.3571 95.2849 60.7753 
53.3403 95.1674 60.5796 
53.2783 95.0432 60.3892 
53.2098 94.9216 60.202 
53.1076 94.7935 60.0266 
52.9867 94.6668 59.8567 
52.8487 94.5471 59.6965 
52.698 94.4234 59.5369 
52.5345 94.3115 59.3831 
52.3572 94.1983 59.2342 
52.1741 94.0922 59.0932 
51.9773 93.9889 58.9544 
51.7704 93.8903 58.82 
51.5482 93.7974 58.6976 
51.3168 93.7108 58.5891 
51.0685 93.6367 58.502 
50.8078 93.5678 58.4349 
50.536 93.5127 58.4001 
50.2514 93.4642 58.3865 
49.9714 93.4383 58.4133 
49.6892 93.4306 58.4827 
49.4144 93.4331 58.5658 
49.1496 93.4499 58.6811 
49.145 93.7901 58.6087 
48.9052 93.8246 58.7497 
48.677 93.8694 58.8996 
48.4547 93.9223 59.0598 
48.2492 93.9935 59.2386 
48.0499 94.0647 59.4186 
47.8787 94.1563 59.6166 
47.7139 94.2506 59.8235 
47.5899 94.3535 60.0461 
47.5015 94.4669 60.2803 
47.4316 94.5862 60.5201 
47.4094 94.7074 60.7552 
47.4198 94.8333 60.9969 
47.4873 94.9622 61.2249 
47.564 95.0887 61.4471 
47.6885 95.2095 61.6498 
47.8278 95.3264 61.8405 
47.9917 95.4403 62.0116 
48.1592 95.5531 62.179 
48.3478 95.6578 62.3238 
48.5419 95.7577 62.4596 
48.7409 95.857 62.5842 
48.946 95.9501 62.6968 
49.1585 96.0381 62.7975 
49.3776 96.1191 62.8809 
49.6023 96.1922 62.9499 
49.8325 96.2537 62.9908 
50.0614 96.3103 63.0319 
50.2941 96.3454 63.0361 
50.5273 96.374 63.0227 
50.7568 96.3874 62.9904 
50.9811 96.3894 62.9409 
51.1988 96.3788 62.8693 
51.4049 96.3563 62.7826 
51.6088 96.3298 62.6861 
51.8005 96.2923 62.5709 
51.9842 96.2513 62.4528 
52.1683 96.2082 62.3298 
52.3399 96.1624 62.1928 
52.5033 96.1129 62.0542 
52.6589 96.0611 61.9064 
52.805 96.005 61.7509 
52.9315 95.9407 61.5825 
53.0588 95.8766 61.4147 
53.1424 95.7961 61.232 
53.2152 95.7103 61.0426 
53.2489 95.614 60.8507 
53.2486 95.5037 60.6549 
53.2249 95.3928 60.4644 
53.1724 95.2776 60.2775 
53.0872 95.1585 60.0969 
52.9857 95.0419 59.9237 
52.8772 94.9272 59.7548 
52.7364 94.8105 59.5972 
52.5909 94.6963 59.4419 
52.4317 94.5863 59.2924 
52.2589 94.483 59.1496 
52.0782 94.3797 59.0089 
51.8827 94.2828 58.8745 
51.6787 94.1929 58.7516 
51.4634 94.1075 58.6353 
51.233 94.0293 58.535 
50.9943 93.9572 58.4459 
50.7456 93.8955 58.3771 
50.4793 93.8426 58.337 
50.2129 93.8032 58.329 
49.9363 93.7776 58.3547 
49.6699 93.7703 58.4156 
49.4005 93.7716 58.5014 
49.145 93.7902 58.6087 
49.1526 94.1236 58.5575 
48.9186 94.1529 58.6818 
48.7001 94.1989 58.8327 
48.488 94.2513 58.9895 
48.2865 94.3138 59.1534 
48.1049 94.3903 59.3345 
47.9251 94.4683 59.517 
47.7894 94.5688 59.728 
47.6535 94.6665 59.9358 
47.5282 94.7675 60.1445 
47.4579 94.8833 60.3748 
47.4238 95.0023 60.6067 
47.4331 95.1264 60.8422 
47.4887 95.2491 61.0662 
47.5631 95.3722 61.288 
47.6741 95.4932 61.4928 
47.8061 95.6092 61.6842 
47.9627 95.7195 61.8593 
48.1397 95.8239 62.0174 
48.3222 95.9276 62.1666 
48.516 96.0236 62.2989 
48.7141 96.1183 62.4237 
48.9261 96.2025 62.5293 
49.1352 96.2898 62.6292 
49.3517 96.3639 62.7123 
49.5729 96.4364 62.7844 
49.8012 96.4941 62.8301 
50.0303 96.5452 62.8654 
50.2623 96.5807 62.8731 
50.4922 96.6023 62.8625 
50.7188 96.611 62.8252 
50.9423 96.6149 62.7814 
51.1539 96.5977 62.7057 
51.3651 96.5801 62.6291 
51.5635 96.5502 62.5293 
51.7503 96.5123 62.4186 
51.9305 96.4703 62.2982 
52.1106 96.4283 62.1778 
52.28 96.3805 62.0474 
52.4455 96.3315 61.912 
52.5962 96.278 61.7636 
52.7394 96.2219 61.6144 
52.8693 96.159 61.452 
52.9838 96.0902 61.2842 
53.0633 96.0116 61.1048 
53.1277 95.9257 60.9178 
53.153 95.8301 60.7264 
53.1596 95.7313 60.5386 
53.1246 95.6203 60.3516 
53.0744 95.5108 60.1693 
52.976 95.4013 60.0021 
52.8776 95.2875 59.8314 
52.7737 95.1737 59.6613 
52.6373 95.0669 59.506 
52.4937 94.959 59.3572 
52.3322 94.8561 59.2112 
52.1662 94.7576 59.0701 
51.9859 94.6616 58.9344 
51.7993 94.5704 58.804 
51.5966 94.4867 58.6866 
51.3871 94.4038 58.572 
51.167 94.3317 58.4768 
50.9282 94.2659 58.391 
50.6872 94.2121 58.3344 
50.4325 94.1614 58.2925 
50.1682 94.1299 58.2905 
49.9109 94.1093 58.3125 
49.6469 94.0993 58.3653 
49.3991 94.1063 58.4468 
49.1526 94.1237 58.5574 
49.1616 94.4417 58.5067 
48.9361 94.4731 58.6295 
48.7255 94.5148 58.7686 
48.5278 94.5683 58.9192 
48.3303 94.6258 59.0786 
48.1491 94.6999 59.2549 
47.9763 94.775 59.4275 
47.827 94.8655 59.6148 
47.685 94.9598 59.8133 
47.5795 95.0669 60.0238 
47.4831 95.1741 60.2353 
47.4358 95.2907 60.4616 
47.4395 95.4112 60.6915 
47.4881 95.5332 60.9153 
47.5627 95.6507 61.1302 
47.6678 95.7695 61.3335 
47.7958 95.8828 61.5246 
47.955 95.9881 61.6979 
48.1261 96.0935 61.8569 
48.3108 96.1875 61.9985 
48.5007 96.2835 62.1346 
48.7033 96.3699 62.2485 
48.9065 96.4553 62.361 
49.1203 96.5303 62.4502 
49.3349 96.6041 62.5373 
49.554 96.6729 62.6102 
49.7768 96.7309 62.6654 
50.0052 96.7771 62.695 
50.2339 96.8128 62.7119 
50.4609 96.8304 62.6978 
50.6887 96.843 62.6743 
50.9084 96.8395 62.6263 
51.1204 96.8248 62.557 
51.327 96.8032 62.4772 
51.5198 96.7703 62.3795 
51.711 96.7351 62.275 
51.8892 96.6921 62.1555 
52.0648 96.6476 62.0371 
52.2317 96.6001 61.9083 
52.3896 96.5493 61.773 
52.5377 96.4943 61.6281 
52.6788 96.4371 61.4792 
52.8017 96.3743 61.3232 
52.9007 96.3015 61.1511 
52.9928 96.2248 60.9783 
53.0516 96.1433 60.7984 
53.0658 96.0476 60.6115 
53.0833 95.9513 60.4233 
53.0459 95.8469 60.2396 
52.9796 95.741 60.0635 
52.9 95.6353 59.8915 
52.7909 95.5267 59.7305 
52.6735 95.421 59.5738 
52.5375 95.3188 59.4243 
