ply
format ascii 1.0
comment VCGLIB generated
element vertex 1940
property float x
property float y
property float z
element face 0
property list uchar int vertex_indices
end_header
68.8704 75.7294 80.6642 
69.0395 76.1177 79.9486 
69.0243 76.6273 79.2762 
68.8384 77.2068 78.6975 
68.5715 77.804 78.1855 
68.2799 78.4097 77.7001 
67.9013 79.0256 77.2777 
67.4728 79.6549 76.8994 
67.0889 80.3185 76.5038 
66.8031 81.013 76.071 
66.4438 81.7109 75.7104 
65.9875 82.4002 75.4485 
65.5261 83.1041 75.2304 
65.0706 83.8149 75.0466 
64.5727 84.5087 74.9503 
64.0275 85.1653 74.9443 
63.4774 85.8016 74.9885 
62.937 86.4261 75.0698 
62.4101 87.0404 75.1776 
61.9013 87.6512 75.3049 
61.4003 88.2403 75.4597 
60.8626 88.7411 75.6961 
60.2789 89.0899 76.0402 
59.68 89.1902 76.4807 
59.1199 89.0153 76.9562 
58.6433 88.5883 77.4113 
58.1688 88.1155 77.8899 
57.592 87.8267 78.4498 
56.9928 87.6075 79.0385 
56.4479 87.2357 79.6275 
55.9847 86.7086 80.206 
55.5331 86.1539 80.8123 
55.0868 85.58 81.4532 
54.7749 84.8858 82.0922 
54.6001 84.11 82.7176 
54.9886 84.5188 83.3066 
54.8263 83.7772 83.9601 
54.7311 83.0127 84.631 
54.6994 82.2312 85.3087 
54.7384 81.4377 85.9801 
54.8141 80.6475 86.6538 
54.88 79.878 87.3432 
54.9545 79.1181 88.0427 
55.184 78.3493 88.686 
55.558 77.5932 89.2452 
56.0055 76.858 89.7478 
56.4715 76.1407 90.2292 
56.929 75.4394 90.7072 
57.3903 74.7614 91.1657 
57.8908 74.1081 91.5736 
58.4756 73.4945 91.8792 
59.1221 72.921 92.0947 
59.8444 72.4308 92.1782 
60.6244 72.0895 92.0824 
61.3838 71.9851 91.768 
62.0392 72.0926 91.3139 
62.5819 72.334 90.7963 
63.055 72.6283 90.2538 
63.4955 72.9319 89.697 
63.8943 73.2544 89.1127 
64.2922 73.5686 88.512 
64.7394 73.8344 87.9142 
65.1777 74.0886 87.3054 
65.5677 74.3548 86.6619 
66.0188 74.5593 86.0383 
66.5478 74.6784 85.465 
67.0881 74.7638 84.9089 
67.6019 74.8613 84.336 
68.044 75.0214 83.7171 
68.4132 75.248 83.0635 
68.7197 75.5304 82.3884 
68.9927 75.8412 81.7015 
69.2301 76.1867 81.0029 
69.379 76.6018 80.3027 
69.3537 77.1114 79.6401 
69.1609 77.6798 79.0685 
68.8611 78.2679 78.581 
68.527 78.8657 78.1344 
68.1443 79.4747 77.7345 
67.7409 80.1004 77.3601 
67.3708 80.7505 76.9748 
67.0438 81.4184 76.5823 
66.7032 82.0958 76.2272 
66.2991 82.777 75.9447 
65.8724 83.4657 75.7136 
65.4053 84.1445 75.5597 
64.8911 84.8012 75.4881 
64.3476 85.4275 75.4873 
63.8104 86.045 75.5219 
63.2791 86.6493 75.5918 
62.7554 87.2439 75.6941 
62.2473 87.8305 75.814 
61.7463 88.4055 75.9605 
61.2148 88.8936 76.1788 
60.6317 89.1924 76.5179 
60.0508 89.2497 76.9522 
59.5169 89.0674 77.4257 
59.0589 88.6673 77.8984 
58.5963 88.2359 78.4008 
58.0476 87.9324 78.961 
57.4688 87.7039 79.5501 
56.9193 87.3911 80.1501 
56.446 86.9212 80.748 
56.0068 86.3903 81.3616 
55.5641 85.862 82.0129 
55.2122 85.2363 82.6667 
54.9884 84.5186 83.3063 
55.4171 84.8952 83.8594 
55.1416 84.2448 84.5451 
54.9563 83.5322 85.2386 
54.8832 82.7662 85.9276 
54.9333 81.975 86.5945 
55.0736 81.183 87.2339 
55.2061 80.4122 87.8852 
55.3165 79.6573 88.5623 
55.5589 78.8908 89.1778 
55.9222 78.137 89.7201 
56.3753 77.4034 90.2009 
56.844 76.681 90.6662 
57.2687 75.9684 91.1525 
57.6963 75.2777 91.6192 
58.1904 74.6174 92.0187 
58.7506 73.985 92.3472 
59.3807 73.3895 92.5838 
60.101 72.8797 92.6684 
60.8826 72.5298 92.5501 
61.647 72.3843 92.2375 
62.317 72.4568 91.7796 
62.8656 72.691 91.2472 
63.3262 73.0077 90.6861 
63.751 73.3403 90.1113 
64.1479 73.6823 89.5178 
64.5363 74.0225 88.9064 
64.9577 74.3214 88.2873 
65.3763 74.6038 87.6556 
65.7885 74.8746 87.0051 
66.2736 75.0599 86.3793 
66.8049 75.1705 85.7917 
67.3419 75.2569 85.2234 
67.8662 75.347 84.6518 
68.3507 75.4751 84.0499 
68.756 75.681 83.4028 
69.0742 75.9633 82.7269 
69.3153 76.3051 82.0413 
69.5008 76.6876 81.3542 
69.6156 77.1173 80.6743 
69.6104 77.6078 80.0231 
69.4393 78.1533 79.4496 
69.1526 78.7275 78.9642 
68.8101 79.3169 78.5353 
68.4396 79.9196 78.1424 
68.0629 80.5378 77.7657 
67.7003 81.1724 77.3937 
67.3594 81.8239 77.0245 
67.0124 82.4835 76.6863 
66.6268 83.1497 76.4089 
66.2037 83.8166 76.1896 
65.7228 84.4659 76.0607 
65.1923 85.0838 76.0149 
64.6608 85.6908 76.0088 
64.1385 86.2946 76.0313 
63.6168 86.8827 76.094 
63.0954 87.4553 76.193 
62.5869 88.0238 76.3081 
62.0834 88.5733 76.449 
61.5503 89.0483 76.657 
60.9738 89.3539 76.9711 
60.4027 89.387 77.401 
59.8888 89.1955 77.8795 
59.4427 88.8287 78.3813 
58.9909 88.4315 78.9041 
58.4818 88.0975 79.4631 
57.9362 87.8294 80.0481 
57.401 87.5316 80.6518 
56.9318 87.1052 81.2584 
56.5233 86.5782 81.8705 
56.0933 86.0816 82.5257 
55.7099 85.5323 83.1968 
55.4168 84.8949 83.859 
55.9011 85.2293 84.3717 
55.587 84.6443 85.0799 
55.3633 83.9817 85.791 
55.2603 83.25 86.4865 
55.315 82.4682 87.136 
55.484 81.6786 87.7407 
55.6585 80.9026 88.3578 
55.7772 80.1565 89.0196 
55.9379 79.4142 89.6623 
56.2365 78.6681 90.2289 
56.7018 77.9385 90.6916 
57.1762 77.2113 91.1482 
57.5548 76.4805 91.6528 
57.9322 75.7688 92.1347 
58.4609 75.1127 92.4995 
59.0478 74.4845 92.7986 
59.6788 73.8834 93.0312 
60.3877 73.3567 93.1226 
61.1613 72.9737 93.0141 
61.9315 72.7771 92.7145 
62.6197 72.8101 92.2537 
63.1827 73.0292 91.7076 
63.6509 73.3473 91.1344 
64.0791 73.6912 90.5462 
64.4809 74.0455 89.9451 
64.8583 74.4185 89.3282 
65.2524 74.7625 88.6925 
65.6868 75.0479 88.0481 
66.1199 75.3091 87.3936 
66.6161 75.4737 86.7619 
67.128 75.5975 86.1554 
67.6351 75.7125 85.5637 
68.1415 75.8243 84.9778 
68.6336 75.9529 84.3796 
69.0593 76.1493 83.7408 
69.3681 76.4424 83.0652 
69.5576 76.8105 82.382 
69.7075 77.2047 81.7055 
69.8032 77.6316 81.0402 
69.819 78.0991 80.404 
69.7025 78.6181 79.8249 
69.4547 79.1782 79.3282 
69.1292 79.7593 78.8993 
68.7696 80.3555 78.5101 
68.4058 80.9647 78.1406 
68.0488 81.5872 77.7781 
67.6997 82.2228 77.4314 
67.3459 82.8671 77.111 
66.9592 83.5164 76.8472 
66.5181 84.1592 76.6599 
66.0143 84.7704 76.5646 
65.4915 85.3673 76.5214 
64.9792 85.9659 76.499 
64.4743 86.5603 76.505 
63.9617 87.1353 76.5588 
63.4429 87.6886 76.6581 
62.9288 88.2306 76.7808 
62.4169 88.7582 76.9243 
61.8872 89.2392 77.1121 
61.3098 89.58 77.3982 
60.7309 89.627 77.8291 
60.2325 89.4166 78.3332 
59.7889 89.0682 78.8552 
59.3522 88.6831 79.3925 
58.887 88.3172 79.9513 
58.3875 87.9962 80.5342 
57.8767 87.6932 81.1379 
57.4235 87.2813 81.7461 
57.0385 86.7664 82.3576 
56.6302 86.2838 83.0101 
56.2395 85.7852 83.6873 
55.9008 85.2292 84.3714 
56.3982 85.5498 84.8591 
56.1118 84.9777 85.5624 
55.9102 84.3341 86.2616 
55.7985 83.6438 86.9478 
55.788 82.9179 87.611 
55.9075 82.1605 88.2282 
56.0558 81.4036 88.8529 
56.1508 80.6681 89.516 
56.2583 79.938 90.1766 
56.4963 79.1909 90.7731 
56.9591 78.4596 91.238 
57.43 77.7271 91.6976 
57.734 76.9683 92.2305 
58.1032 76.2355 92.7058 
58.6846 75.5864 93.0331 
59.3314 74.9742 93.2766 
59.9863 74.3761 93.4752 
60.6935 73.8404 93.5585 
61.4542 73.4208 93.4727 
62.2263 73.1942 93.1803 
62.9362 73.172 92.73 
63.5259 73.3584 92.1765 
64.02 73.6524 91.5899 
64.4761 73.9736 90.991 
64.8978 74.3244 90.3806 
65.258 74.7417 89.7645 
65.6399 75.1247 89.1209 
66.0856 75.4009 88.4631 
66.5603 75.6067 87.8102 
67.0429 75.7763 87.1698 
67.5145 75.9437 86.5432 
67.9568 76.137 85.9191 
68.4242 76.2918 85.3108 
68.8951 76.4447 84.7034 
69.3066 76.655 84.0665 
69.5862 76.9604 83.3942 
69.756 77.3298 82.717 
69.9048 77.715 82.0485 
70.0241 78.1218 81.3937 
70.0689 78.5692 80.7604 
70.0024 79.0653 80.1709 
69.7733 79.6186 79.6721 
69.4604 80.194 79.2453 
69.1084 80.7828 78.8625 
68.7515 81.3833 78.4987 
68.3998 81.9942 78.1477 
68.0475 82.6153 77.8132 
67.6785 83.2433 77.5205 
67.267 83.8704 77.2927 
66.8028 84.4824 77.1404 
66.2955 85.0702 77.0586 
65.7953 85.6616 76.9985 
65.3094 86.257 76.9531 
64.8229 86.8466 76.9385 
64.3196 87.4101 76.9843 
63.8029 87.9483 77.0818 
63.2818 88.4664 77.2168 
62.7615 88.9738 77.3709 
62.2323 89.4608 77.5495 
61.6516 89.8277 77.8242 
61.0546 89.9235 78.2514 
60.5531 89.6969 78.779 
60.112 89.3574 79.3165 
59.6917 88.9726 79.8658 
59.2587 88.5896 80.4294 
58.8075 88.2247 81.0115 
58.3367 87.8838 81.6101 
57.9046 87.4789 82.2196 
57.523 86.9988 82.8379 
57.1227 86.5388 83.4905 
56.7408 86.0657 84.1668 
56.3979 85.5496 84.8588 
56.8873 85.8763 85.3269 
56.6499 85.2899 86.0133 
56.4651 84.6642 86.6987 
56.3145 84.0284 87.3963 
56.2199 83.3689 88.0889 
56.2419 82.6577 88.7482 
56.3401 81.9238 89.3921 
56.4653 81.1888 90.0362 
56.6002 80.4554 90.6822 
56.7847 79.7136 91.3071 
57.1693 78.9678 91.8151 
57.5626 78.2196 92.3155 
57.8272 77.4392 92.8589 
58.2213 76.6822 93.3315 
58.8759 76.0398 93.6182 
59.5793 75.4355 93.8173 
60.2711 74.8401 93.9751 
60.9909 74.2927 94.0389 
61.7585 73.8633 93.9399 
62.5356 73.6081 93.6503 
63.2586 73.5532 93.2025 
63.8771 73.6956 92.6483 
64.428 73.9189 92.057 
64.9387 74.1767 91.4432 
65.373 74.5308 90.8173 
65.7232 74.9944 90.2014 
66.1072 75.3944 89.5552 
66.5698 75.6389 88.8874 
67.0428 75.8333 88.2262 
67.4956 76.0431 87.574 
67.9193 76.2755 86.9295 
68.3093 76.5293 86.2852 
68.7178 76.7478 85.6505 
69.1496 76.9359 85.0262 
69.5258 77.169 84.3837 
69.7807 77.4821 83.7152 
69.9712 77.8342 83.0469 
70.1488 78.1998 82.3833 
70.3198 78.574 81.7265 
70.3971 79.0038 81.0876 
70.3379 79.4986 80.4948 
70.1152 80.0501 79.9958 
69.7951 80.6221 79.5819 
69.4459 81.2025 79.2049 
69.0953 81.793 78.8475 
68.7453 82.3936 78.5054 
68.389 83.0013 78.1886 
68.0009 83.6121 77.9245 
67.5628 84.2138 77.7345 
67.0761 84.7967 77.6159 
66.5832 85.3762 77.5287 
66.1171 85.9704 77.435 
65.6556 86.5656 77.3646 
65.1839 87.1484 77.3365 
64.691 87.7087 77.3665 
64.176 88.2357 77.4657 
63.6492 88.7323 77.6144 
63.117 89.21 77.795 
62.5825 89.6844 77.9885 
62.0112 90.0924 78.2503 
61.4019 90.1914 78.6953 
60.8782 89.9935 79.2266 
60.4326 89.6604 79.7733 
60.022 89.2783 80.328 
59.6114 88.8892 80.8965 
59.1896 88.5074 81.4788 
58.7638 88.1271 82.0761 
58.3453 87.7308 82.6873 
57.956 87.2917 83.3147 
57.5623 86.8553 83.9668 
57.1931 86.3981 84.6426 
56.887 85.8761 85.3266 
57.3877 86.1917 85.7726 
57.1857 85.6 86.4436 
56.9878 85.0082 87.1347 
56.7835 84.4337 87.8498 
56.627 83.8283 88.5673 
56.5923 83.1508 89.2533 
56.6631 82.4323 89.9086 
56.8375 81.6917 90.524 
57.0297 80.9505 91.1372 
57.1853 80.2189 91.7768 
57.4105 79.4766 92.3719 
57.6645 78.7149 92.9452 
57.9059 77.9156 93.5155 
58.3647 77.1434 93.9771 
59.077 76.4918 94.2335 
59.8124 75.8785 94.4035 
60.5416 75.2774 94.5282 
61.2906 74.7289 94.5546 
62.0754 74.2936 94.4247 
62.8613 74.0118 94.1328 
63.6011 73.9243 93.6875 
64.2652 73.9982 93.1396 
64.8683 74.1557 92.5405 
65.4235 74.361 91.9058 
65.8833 74.7127 91.2606 
66.235 75.1942 90.6348 
66.625 75.5894 89.981 
67.08 75.8375 89.306 
67.531 76.0678 88.6356 
67.9389 76.3432 87.9707 
68.3207 76.6278 87.3106 
68.6763 76.9178 86.6526 
69.0377 77.1831 85.9979 
69.4169 77.416 85.3524 
69.749 77.6759 84.6991 
70.0036 77.9853 84.035 
70.2286 78.3141 83.3717 
70.4397 78.6554 82.712 
70.6329 79.0147 82.0564 
70.7453 79.4294 81.41 
70.6748 79.9317 80.8197 
70.4408 80.4817 80.3281 
70.1221 81.0461 79.9162 
69.7787 81.6176 79.5426 
69.4329 82.1973 79.1892 
69.0834 82.7859 78.8569 
68.7131 83.3808 78.5661 
68.3026 83.9709 78.3362 
67.8425 84.5484 78.1779 
67.3538 85.1136 78.0709 
66.8865 85.692 77.9627 
66.4486 86.2875 77.8426 
66.0138 86.8829 77.7416 
65.5514 87.4609 77.7051 
65.0634 88.014 77.7324 
64.5527 88.5354 77.826 
64.0233 89.0179 77.984 
63.4858 89.4739 78.1843 
62.9437 89.9116 78.4132 
62.3756 90.2875 78.711 
61.7717 90.4236 79.1519 
61.227 90.2638 79.678 
60.7691 89.9521 80.2252 
60.3548 89.5863 80.7827 
59.9519 89.2045 81.3529 
59.5519 88.8181 81.9369 
59.1467 88.4315 82.5349 
58.7475 88.0342 83.1492 
58.3587 87.6215 83.7813 
57.9744 87.2028 84.4333 
57.6315 86.7437 85.1045 
57.3874 86.1915 85.7724 
57.9025 86.4935 86.194 
57.7152 85.9103 86.8632 
57.4857 85.3667 87.5679 
57.2528 84.8341 88.2903 
57.0954 84.2494 89.0058 
57.0572 83.5948 89.6922 
57.1142 82.8999 90.3508 
57.2607 82.1802 90.9756 
57.4411 81.4517 91.5994 
57.5466 80.7331 92.2677 
57.6408 80.0027 92.9329 
57.7827 79.2315 93.5751 
58.0465 78.4209 94.1704 
58.5697 77.6389 94.6183 
59.3002 76.9572 94.8641 
60.063 76.3216 95.0178 
60.8232 75.7092 95.1106 
61.6046 75.1543 95.0992 
62.4077 74.6967 94.9548 
63.2082 74.3711 94.6602 
63.9742 74.2459 94.2092 
64.6725 74.2885 93.6531 
65.3255 74.3975 93.0419 
65.9125 74.5859 92.3867 
66.3873 74.9312 91.7182 
66.7611 75.3893 91.0683 
67.1528 75.7808 90.403 
67.5816 76.0747 89.7227 
67.9978 76.3596 89.0425 
68.3705 76.6782 88.3645 
68.7205 76.9987 87.6902 
69.0537 77.3108 87.0175 
69.3879 77.6002 86.3498 
69.7229 77.8694 85.6862 
70.0266 78.1488 85.0217 
70.2971 78.4451 84.3563 
70.5412 78.7559 83.6937 
70.7483 79.0954 83.0375 
70.9258 79.4622 82.39 
71.0278 79.8836 81.754 
70.9556 80.3791 81.1708 
70.7368 80.9147 80.6729 
70.4362 81.4655 80.2523 
70.1048 82.0271 79.8762 
69.764 82.5956 79.5259 
69.4089 83.1723 79.209 
69.0206 83.7502 78.9467 
68.5894 84.3221 78.7468 
68.1182 84.8778 78.6137 
67.6424 85.4364 78.5016 
67.205 86.0173 78.365 
66.7933 86.611 78.2184 
66.3727 87.2016 78.1042 
65.9181 87.7735 78.0606 
65.4363 88.3242 78.0824 
64.9309 88.8443 78.1689 
64.4009 89.3186 78.3319 
63.8587 89.7511 78.5531 
63.308 90.1391 78.8253 
62.7419 90.4401 79.1727 
62.1566 90.571 79.617 
61.6092 90.4733 80.1306 
61.124 90.2218 80.6727 
60.6941 89.8893 81.2298 
60.2925 89.5218 81.8008 
59.9003 89.1449 82.3861 
59.5103 88.7606 82.9873 
59.1211 88.3732 83.6023 
58.7387 87.9765 84.2346 
58.3798 87.5569 84.8857 
58.0924 87.0687 85.5435 
57.9022 86.4933 86.1937 
58.4017 86.8109 86.6096 
58.2122 86.2492 87.2857 
57.9455 85.7532 88.0023 
57.6942 85.2507 88.7272 
57.5466 84.6774 89.4365 
57.5116 84.0385 90.121 
57.534 83.3729 90.7945 
57.6102 82.687 91.4566 
57.7082 81.988 92.1224 
57.7658 81.284 92.814 
57.8146 80.557 93.517 
57.9731 79.7806 94.189 
58.3024 78.9693 94.7861 
58.8557 78.1717 95.227 
59.5797 77.4518 95.4796 
60.3478 76.783 95.6305 
61.1377 76.1609 95.6941 
61.9489 75.6037 95.6443 
62.7649 75.1083 95.4937 
63.5774 74.6952 95.2275 
64.375 74.5308 94.7741 
65.0875 74.625 94.1753 
65.7508 74.7505 93.5391 
66.3609 74.9188 92.8726 
66.8663 75.2139 92.1863 
67.2833 75.6084 91.5088 
67.6725 76.009 90.8285 
68.0595 76.3701 90.14 
68.4366 76.7095 89.4477 
68.7887 77.0508 88.7566 
69.1224 77.3839 88.0668 
69.4458 77.7022 87.3816 
69.7611 78.0067 86.6996 
70.0719 78.2956 86.0223 
70.3688 78.5788 85.3474 
70.6383 78.871 84.6769 
70.8812 79.1772 84.0112 
71.062 79.5277 83.3591 
71.1785 79.9213 82.7246 
71.221 80.3579 82.1113 
71.1776 80.8306 81.5327 
71.0078 81.3426 81.0199 
70.7396 81.8799 80.585 
70.423 82.4297 80.204 
70.0862 82.9885 79.8586 
69.7207 83.5524 79.562 
69.3158 84.1142 79.3253 
68.8681 84.6638 79.1558 
68.4056 85.2121 79.0208 
67.9577 85.7725 78.8869 
67.5428 86.3505 78.7306 
67.1455 86.9371 78.5708 
66.7304 87.519 78.4561 
66.2826 88.0862 78.4089 
65.8059 88.6309 78.4301 
65.3029 89.1464 78.5192 
64.7755 89.6175 78.6811 
64.2277 90.0255 78.9223 
63.6711 90.3634 79.2314 
63.1079 90.6068 79.6088 
62.5466 90.693 80.0671 
62.0067 90.6335 80.5755 
61.5059 90.4481 81.1137 
61.0517 90.1701 81.6694 
60.6383 89.8361 82.2393 
60.2475 89.4738 82.8251 
59.864 89.102 83.4261 
59.4838 88.7256 84.0442 
59.1154 88.3364 84.6766 
58.7971 87.8987 85.3229 
58.552 87.3961 85.9694 
58.4014 86.8107 86.6094 
58.8327 87.189 87.0406 
58.6512 86.6398 87.7208 
58.3716 86.1651 88.4369 
58.1077 85.6864 89.1615 
57.9495 85.1335 89.8765 
57.9007 84.5117 90.5691 
57.9031 83.8649 91.2553 
57.9299 83.2043 91.9425 
57.9828 82.527 92.6318 
58.0154 81.8423 93.3466 
58.0727 81.1267 94.076 
58.293 80.3482 94.7494 
58.689 79.5385 95.3198 
59.2382 78.7366 95.7649 
59.9224 77.9797 96.0536 
60.686 77.283 96.21 
61.4921 76.6467 96.2503 
62.3219 76.0742 96.1806 
63.1442 75.5309 96.048 
63.9679 75.0097 95.8459 
64.7962 74.8547 95.3525 
65.4907 75.0302 94.6947 
66.1517 75.1888 94.0202 
66.806 75.286 93.3532 
67.3576 75.501 92.6541 
67.8231 75.8302 91.9502 
68.1935 76.2667 91.2599 
68.5415 76.6893 90.5617 
68.8931 77.0613 89.8544 
69.2216 77.4256 89.147 
69.5379 77.7729 88.442 
69.8529 78.0958 87.7411 
70.1585 78.4047 87.0475 
70.4558 78.7013 86.3572 
70.7424 78.9881 85.673 
71.0139 79.2752 84.9935 
71.2444 79.5843 84.323 
71.3994 79.9446 83.6695 
71.4557 80.3625 83.0476 
71.4596 80.8064 82.449 
71.4179 81.2682 81.8761 
71.281 81.763 81.355 
71.038 82.2887 80.9098 
70.7343 82.829 80.5262 
70.3954 83.3765 80.1921 
70.0182 83.9264 79.9144 
69.5992 84.4692 79.7037 
69.1517 85.0072 79.5444 
68.7108 85.5542 79.3949 
68.2914 86.1141 79.2337 
67.8942 86.6869 79.0629 
67.5015 87.263 78.9061 
67.0871 87.8359 78.7986 
66.6436 88.3947 78.7554 
66.1727 88.9349 78.7757 
65.6731 89.4463 78.866 
65.1449 89.9072 79.0393 
64.5958 90.3067 79.2867 
64.0331 90.6044 79.6219 
63.4749 90.7869 80.0284 
62.9315 90.8366 80.4968 
62.4084 90.7793 81.0056 
61.9118 90.6273 81.5441 
61.4386 90.412 82.0979 
61.0021 90.128 82.6683 
60.5998 89.799 83.2532 
60.2196 89.4439 83.8555 
59.8453 89.0809 84.4743 
59.4868 88.6999 85.1089 
59.1786 88.2685 85.7543 
58.9628 87.7608 86.398 
58.8325 87.1888 87.0404 
59.148 87.6417 87.4905 
58.9871 87.1008 88.1672 
58.7521 86.6081 88.8696 
58.5278 86.1173 89.5834 
58.383 85.5711 90.2955 
58.3454 84.959 90.9843 
58.3467 84.3258 91.6743 
58.3754 83.6778 92.366 
58.411 83.0214 93.0718 
58.4586 82.3535 93.7947 
58.5554 81.6521 94.5211 
58.7595 80.9046 95.2114 
59.1372 80.1103 95.7982 
59.6657 79.3088 96.2616 
60.327 78.5373 96.5717 
61.0789 77.8192 96.7376 
61.8843 77.1628 96.7776 
62.7119 76.5545 96.7249 
63.5339 75.9515 96.6331 
64.3795 75.4158 96.4355 
65.2215 75.2611 95.916 
65.932 75.418 95.2321 
66.6182 75.5513 94.5382 
67.2955 75.6054 93.85 
67.9081 75.7182 93.1326 
68.3953 76.031 92.3987 
68.7416 76.5218 91.6915 
69.0713 76.9733 90.9748 
69.3934 77.3817 90.2517 
69.6921 77.7806 89.5322 
69.9879 78.1448 88.8133 
70.2808 78.4828 88.0972 
70.5711 78.8012 87.3901 
70.8568 79.1029 86.6898 
71.1369 79.3899 85.9947 
71.4014 79.6765 85.3065 
71.6251 79.9842 84.627 
71.7725 80.3426 83.9656 
71.8154 80.7645 83.3401 
71.7871 81.218 82.7498 
71.7161 81.6846 82.1868 
71.5795 82.1728 81.6667 
71.3429 82.6909 81.2221 
71.0412 83.2226 80.8431 
70.6928 83.7578 80.5254 
70.3105 84.2954 80.2592 
69.8976 84.8273 80.0489 
69.4651 85.36 79.8827 
69.0414 85.903 79.721 
68.6405 86.4571 79.547 
68.2498 87.0208 79.3773 
67.8562 87.5868 79.2293 
67.4413 88.1478 79.1338 
66.9974 88.696 79.1032 
66.5299 89.2264 79.1329 
66.0314 89.7252 79.2374 
65.5039 90.1709 79.4216 
64.9552 90.5582 79.6772 
64.3929 90.8589 80.0067 
63.833 91.0299 80.4184 
63.3089 91.0294 80.9062 
62.8094 90.9372 81.4241 
62.3292 90.7792 81.9627 
61.8533 90.5991 82.5183 
61.3917 90.3857 83.0877 
60.9647 90.1132 83.6722 
60.5796 89.7809 84.2743 
60.2086 89.4359 84.8935 
59.854 89.0678 85.5306 
59.5431 88.6551 86.1804 
59.3015 88.1801 86.8337 
59.1478 87.6414 87.4903 
59.4173 88.1197 87.9357 
59.2702 87.5858 88.6095 
59.1111 87.0619 89.2952 
58.9493 86.5442 89.9947 
58.8419 85.9899 90.6922 
58.8197 85.3877 91.3734 
58.8395 84.7618 92.0562 
58.8677 84.1316 92.7538 
58.9079 83.4917 93.4649 
58.9639 82.8424 94.1913 
59.0653 82.1677 94.9228 
59.2574 81.4527 95.6288 
59.6221 80.6791 96.2324 
60.13 79.8853 96.7157 
60.7631 79.1045 97.0552 
61.5003 78.3707 97.2356 
62.2941 77.6879 97.2998 
63.1115 77.0389 97.2864 
63.9331 76.3931 97.2314 
64.8073 75.8693 97.0034 
65.6709 75.6769 96.4791 
66.4369 75.7201 95.8021 
67.1624 75.7685 95.1007 
67.8615 75.7978 94.3844 
68.4963 75.9209 93.626 
68.9896 76.2621 92.8519 
69.322 76.7703 92.1181 
69.6497 77.221 91.3715 
69.9516 77.6532 90.6334 
70.2103 78.101 89.9074 
70.4884 78.4785 89.1709 
70.7527 78.8395 88.4444 
71.0039 79.191 87.7287 
71.2682 79.507 87.0177 
71.5409 79.7948 86.3122 
71.7971 80.0793 85.6146 
72.0164 80.3844 84.9254 
72.1581 80.7409 84.2549 
72.2004 81.1569 83.6187 
72.1656 81.609 83.0215 
72.0713 82.0803 82.4614 
71.9098 82.573 81.9514 
71.6561 83.0889 81.5203 
71.343 83.6124 81.153 
70.993 84.1388 80.84 
70.6159 84.6644 80.5731 
70.2153 85.1891 80.3563 
69.8019 85.718 80.175 
69.3935 86.2549 80.0032 
68.9946 86.799 79.8377 
68.6031 87.3516 79.6788 
68.2035 87.9028 79.5527 
67.786 88.4523 79.473 
67.3404 88.9837 79.46 
66.8728 89.5003 79.5052 
66.3766 89.9801 79.625 
65.8487 90.4015 79.8286 
65.3051 90.7778 80.089 
64.7509 91.1086 80.3963 
64.1868 91.2977 80.8003 
63.6616 91.298 81.2911 
63.1976 91.138 81.8263 
62.7454 90.9406 82.3717 
62.2777 90.7676 82.9284 
61.8077 90.5977 83.4976 
61.3569 90.3905 84.0791 
60.9506 90.1111 84.6812 
60.5765 89.7882 85.3039 
60.2216 89.4406 85.9428 
59.8924 89.0577 86.5981 
59.6141 88.6223 87.2649 
59.4172 88.1194 87.9354 
59.7508 88.568 88.3631 
59.6195 88.0319 89.0311 
59.4981 87.4963 89.7048 
59.3505 86.9833 90.4008 
59.2521 86.4388 91.097 
59.2261 85.8525 91.7829 
59.2413 85.2452 92.4714 
59.2743 84.63 93.171 
59.3232 84.0061 93.8834 
59.3938 83.3695 94.6102 
59.5215 82.7082 95.3348 
59.7587 82.0007 96.0215 
60.1362 81.243 96.6189 
60.6313 80.4606 97.1167 
61.2284 79.6786 97.5015 
61.9348 78.9249 97.729 
62.7152 78.2205 97.8193 
63.5213 77.5378 97.8492 
64.3549 76.8736 97.8184 
65.2571 76.3281 97.5957 
66.157 76.0859 97.0623 
66.9633 76.0429 96.3783 
67.703 76.0794 95.6528 
68.4207 76.1054 94.9162 
69.0722 76.2297 94.1317 
69.5555 76.5811 93.3242 
69.9122 77.0462 92.5431 
70.2513 77.47 91.7654 
70.5371 77.9177 91.0045 
70.7718 78.39 90.2665 
71.0381 78.7714 89.5118 
71.2694 79.1611 88.776 
71.4633 79.5686 88.0603 
71.693 79.912 87.3413 
71.9503 80.2051 86.6259 
72.1985 80.4893 85.9169 
72.3965 80.801 85.221 
72.5213 81.1623 84.5467 
72.5572 81.5745 83.9055 
72.5172 82.0197 83.3019 
72.418 82.485 82.7366 
72.2368 82.9768 82.2332 
71.9654 83.4868 81.8123 
71.6448 84.0019 81.452 
71.2972 84.5181 81.1382 
70.9351 85.0346 80.8599 
70.5565 85.5528 80.62 
70.156 86.0754 80.4286 
69.7543 86.604 80.2576 
69.3526 87.1384 80.1079 
68.9523 87.6775 79.9732 
68.5438 88.2148 79.8723 
68.1183 88.7463 79.8173 
67.6715 89.2605 79.8205 
67.2031 89.7552 79.8852 
66.7077 90.2115 80.0246 
66.1804 90.597 80.2522 
65.6457 90.9635 80.5169 
65.1076 91.3263 80.8028 
64.5466 91.5645 81.1837 
64.0182 91.566 81.6782 
63.5719 91.3737 82.2203 
63.1431 91.1473 82.771 
62.6912 90.9622 83.3299 
62.221 90.8157 83.8965 
61.7564 90.6559 84.4747 
61.3293 90.433 85.0763 
60.9447 90.1455 85.7001 
60.5915 89.814 86.346 
60.2574 89.456 87.0069 
59.9654 89.0467 87.6824 
59.7506 88.5678 88.3629 
60.1962 88.9378 88.7516 
60.0718 88.4066 89.4116 
59.9418 87.8874 90.0859 
59.7703 87.4097 90.7909 
59.6501 86.8957 91.4968 
59.6098 86.3317 92.1921 
59.6358 85.7347 92.879 
59.6864 85.1256 93.5724 
59.751 84.5128 94.2802 
59.8533 83.8848 94.9926 
60.0171 83.2317 95.6982 
60.3084 82.5272 96.3418 
60.7077 81.7875 96.9147 
61.1756 81.03 97.444 
61.7333 80.2598 97.8819 
62.404 79.4997 98.1648 
63.1584 78.7751 98.3039 
63.9567 78.0784 98.3685 
64.8009 77.4141 98.3546 
65.7213 76.8795 98.129 
66.6214 76.6423 97.5664 
67.4335 76.5729 96.8729 
68.1924 76.564 96.1492 
68.9183 76.5859 95.4042 
69.5763 76.6974 94.6178 
70.0928 76.9849 93.7928 
70.4839 77.3859 92.9757 
70.8382 77.7813 92.166 
71.1204 78.2222 91.3811 
71.369 78.6591 90.6094 
71.6244 79.045 89.836 
71.8098 79.4806 89.0952 
71.9485 79.9358 88.3821 
72.1324 80.3144 87.6594 
72.3669 80.6208 86.9322 
72.604 80.9048 86.2133 
72.7899 81.217 85.5087 
72.8756 81.5947 84.8349 
72.878 82.0136 84.1987 
72.8213 82.4546 83.5974 
72.7185 82.9093 83.0308 
72.5307 83.3907 82.53 
72.2675 83.8867 82.0995 
71.9504 84.3903 81.7356 
71.6133 84.8953 81.411 
71.2698 85.4016 81.1113 
70.9032 85.9145 80.8609 
70.5153 86.4309 80.661 
70.1132 86.9496 80.5026 
69.704 87.4733 80.3768 
69.2941 87.999 80.2679 
68.88 88.5239 80.1839 
68.4509 89.04 80.146 
68 89.5359 80.168 
67.5269 90.0023 80.2605 
67.0298 90.4255 80.4242 
66.5086 90.7894 80.6655 
65.9832 91.1377 80.9383 
65.4615 91.5024 81.2231 
64.9182 91.7668 81.5932 
64.3847 91.8114 82.072 
63.937 91.6254 82.6092 
63.5179 91.4003 83.1593 
63.0792 91.2114 83.7196 
62.6091 91.0825 84.2829 
62.1319 90.9667 84.8542 
61.6987 90.7727 85.4573 
61.3115 90.5105 86.0859 
60.967 90.191 86.7359 
60.6428 89.8414 87.4034 
60.3774 89.4282 88.0814 
60.196 88.9376 88.7514 
60.6913 89.2598 89.1074 
60.5656 88.7416 89.7652 
60.4065 88.2603 90.4508 
60.216 87.8144 91.1605 
60.0932 87.3239 91.8657 
60.0699 86.7693 92.554 
60.1015 86.187 93.2381 
60.1571 85.5914 93.9312 
60.2395 84.9859 94.6276 
60.3605 84.3696 95.3241 
60.5527 83.7289 96.0027 
60.8784 83.0385 96.6066 
61.2927 82.3169 97.158 
61.7538 81.5845 97.697 
62.2769 80.8391 98.1794 
62.9051 80.0874 98.5276 
63.6265 79.3556 98.7314 
64.4101 78.6522 98.8411 
65.26 78 98.8368 
66.177 77.5121 98.5657 
67.0595 77.2788 97.9922 
67.8865 77.1517 97.3319 
68.6744 77.0838 96.6331 
69.4098 77.093 95.8835 
70.0745 77.1877 95.0899 
70.6068 77.4441 94.2522 
71.0156 77.8095 93.4109 
71.3733 78.187 92.5783 
71.6805 78.584 91.7618 
71.9581 78.9713 90.9569 
72.2058 79.3573 90.1622 
72.3593 79.8171 89.4099 
72.4553 80.3013 88.6928 
72.5889 80.7156 87.9671 
72.7972 81.0363 87.2324 
73.0185 81.3246 86.5031 
73.195 81.636 85.7885 
73.2677 82.0113 85.1025 
73.233 82.4394 84.4702 
73.1526 82.8809 83.868 
73.0273 83.3316 83.3081 
72.8357 83.8013 82.8052 
72.5686 84.2871 82.3754 
72.2626 84.7773 81.9984 
71.9405 85.2709 81.6576 
71.6105 85.7683 81.3451 
71.2605 86.271 81.0761 
70.8752 86.7809 80.881 
70.4666 87.2909 80.7475 
70.0491 87.8031 80.6454 
69.6338 88.3185 80.554 
69.2179 88.8332 80.4798 
68.787 89.3377 80.4522 
68.3304 89.8137 80.4981 
67.8525 90.2554 80.6125 
67.3537 90.6505 80.801 
66.8409 90.9935 81.0542 
66.3244 91.3255 81.3365 
65.8143 91.6692 81.6324 
65.2894 91.9331 82.0021 
64.7672 91.9969 82.4722 
64.3067 91.8593 82.9954 
63.8791 91.6693 83.5371 
63.4348 91.5157 84.0883 
62.9581 91.421 84.6431 
62.4856 91.3165 85.2175 
62.0552 91.1389 85.8251 
61.6798 90.882 86.4603 
61.3519 90.5634 87.1158 
61.0577 90.2022 87.7845 
60.834 89.7682 88.4543 
60.6911 89.2596 89.1073 
61.1893 89.5717 89.4506 
61.0521 89.0779 90.1135 
60.8568 88.6427 90.811 
60.6532 88.2227 91.5223 
60.5182 87.7549 92.2269 
60.4902 87.2256 92.9175 
60.5006 86.6709 93.6146 
60.5505 86.094 94.316 
60.6216 85.5023 95.0162 
60.7724 84.8877 95.6953 
61.0397 84.2405 96.3209 
61.3998 83.561 96.8926 
61.8431 82.8548 97.4163 
62.312 82.1391 97.9483 
62.8217 81.412 98.4509 
63.4089 80.6758 98.863 
64.0939 79.9439 99.1422 
64.8607 79.2371 99.3013 
65.7162 78.6047 99.2852 
66.6278 78.1513 98.9744 
67.5098 77.8916 98.4276 
68.3701 77.6831 97.8248 
69.1898 77.5594 97.1473 
69.9467 77.541 96.3917 
70.6039 77.6567 95.5682 
71.1174 77.9287 94.7052 
71.5229 78.2848 93.8408 
71.8831 78.6497 92.9865 
72.2125 79.0104 92.1464 
72.5117 79.3605 91.3151 
72.7668 79.7283 90.4969 
72.9154 80.1773 89.7173 
72.9737 80.6774 88.992 
73.0619 81.118 88.2654 
73.2281 81.4603 87.5253 
73.4264 81.76 86.7892 
73.5905 82.0742 86.0657 
73.6703 82.436 85.3623 
73.6338 82.8522 84.7082 
73.5235 83.293 84.1078 
73.3649 83.7446 83.555 
73.1489 84.2095 83.0607 
72.8792 84.6852 82.6302 
72.5855 85.1625 82.2376 
72.2829 85.6432 81.8731 
71.9677 86.1282 81.542 
71.6209 86.6232 81.2738 
71.2345 87.1276 81.0899 
70.8185 87.6306 80.9805 
70.3937 88.1317 80.9029 
69.9758 88.6383 80.8223 
69.5585 89.1452 80.7578 
69.1284 89.6419 80.7343 
68.6688 90.1074 80.793 
68.1851 90.5283 80.9319 
67.6847 90.8962 81.1473 
67.1774 91.2247 81.4107 
66.6691 91.5353 81.7038 
66.1655 91.8256 82.0284 
65.6582 92.0583 82.4074 
65.1566 92.1269 82.8681 
64.6882 92.0484 83.3763 
64.2406 91.9331 83.9024 
63.7814 91.8366 84.4414 
63.3002 91.776 84.9899 
62.831 91.6878 85.5644 
62.4135 91.512 86.1811 
62.0585 91.249 86.8253 
61.7508 90.9251 87.4839 
61.4998 90.538 88.1486 
61.3133 90.0851 88.8072 
61.1891 89.5716 89.4504 
61.6811 89.8869 89.7864 
61.5128 89.435 90.4643 
61.2829 89.0428 91.1697 
61.0447 88.6598 91.8859 
60.8597 88.2358 92.6013 
60.7504 87.7559 93.3192 
60.731 87.2231 94.037 
60.7647 86.656 94.7559 
60.8559 86.0621 95.4618 
61.0947 85.4341 96.11 
61.431 84.7825 96.6995 
61.8324 84.1084 97.2486 
62.3113 83.4176 97.7515 
62.8064 82.71 98.2648 
63.3191 81.9918 98.7739 
63.8855 81.2642 99.2257 
64.5444 80.5332 99.5676 
65.3053 79.829 99.7577 
66.1701 79.2044 99.7357 
67.0848 78.7464 99.4227 
67.9861 78.4308 98.9307 
68.8669 78.1974 98.3411 
69.6878 78.0993 97.6386 
70.45 78.0845 96.866 
71.1124 78.1852 96.0307 
71.63 78.4414 95.1493 
72.0313 78.7867 94.2631 
72.3875 79.1423 93.3883 
72.7215 79.4837 92.5259 
73.0305 79.815 91.6759 
73.2981 80.1579 90.8363 
73.4464 80.587 90.0321 
73.486 81.0778 89.2866 
73.5324 81.5342 88.5555 
73.6528 81.9026 87.8126 
73.8031 82.2289 87.0732 
73.9363 82.5563 86.3445 
73.9956 82.9169 85.6363 
73.9694 83.3101 84.9693 
73.8745 83.7246 84.3481 
73.7052 84.1639 83.7897 
73.4764 84.6181 83.2954 
73.2096 85.0797 82.8527 
72.9349 85.5411 82.4355 
72.6496 86.0057 82.047 
72.3393 86.4817 81.7065 
71.9888 86.9732 81.4484 
71.5945 87.472 81.288 
71.1748 87.9684 81.1963 
70.7452 88.4625 81.1383 
70.3236 88.9612 81.071 
69.9031 89.4602 81.0165 
69.4679 89.9462 81.0108 
69.0048 90.3992 81.0862 
68.5188 90.8068 81.2402 
68.0198 91.1662 81.4609 
67.5156 91.4834 81.7328 
67.013 91.7652 82.0439 
66.5145 92.0173 82.3875 
66.0219 92.1843 82.7925 
65.5399 92.2446 83.2526 
65.0726 92.2224 83.7467 
64.6141 92.1656 84.2647 
64.1436 92.1292 84.7923 
63.6635 92.1017 85.3348 
63.2003 92.0344 85.9101 
62.7976 91.8616 86.5325 
62.4574 91.5985 87.18 
62.1758 91.2643 87.8398 
61.9606 90.8554 88.4969 
61.8096 90.3797 89.1402 
61.6809 89.8867 89.7862 
62.1572 90.2145 90.1213 
61.9558 89.8079 90.8128 
61.6964 89.4532 91.5249 
61.4168 89.1135 92.2467 
61.1651 88.742 92.9762 
60.9794 88.3102 93.7203 
60.9171 87.7995 94.4654 
60.9624 87.2355 95.1983 
61.1085 86.6317 95.903 
61.4005 85.9929 96.5334 
61.7667 85.3387 97.1153 
62.1528 84.6704 97.6897 
62.649 83.9918 98.2002 
63.1989 83.2975 98.6862 
63.7307 82.581 99.1928 
64.3132 81.8572 99.6479 
64.974 81.1275 100.015 
65.7396 80.4219 100.229 
66.6255 79.8103 100.186 
67.5515 79.2889 99.9422 
68.4858 78.87 99.5314 
69.3966 78.644 98.9189 
70.2125 78.6177 98.1547 
70.9794 78.6121 97.3516 
71.6403 78.7146 96.4916 
72.1556 78.9652 95.5879 
72.5503 79.3057 94.6772 
72.8986 79.6523 93.7807 
73.2268 79.9835 92.8976 
73.531 80.3053 92.0302 
73.7783 80.6519 91.1783 
73.9167 81.0671 90.3606 
73.95 81.5382 89.5924 
73.9797 81.9829 88.8435 
74.0489 82.3762 88.0958 
74.1339 82.7335 87.3547 
74.208 83.0828 86.6254 
74.2496 83.436 85.9138 
74.2562 83.7935 85.2309 
74.18 84.18 84.5953 
74.0319 84.5892 84.017 
73.8128 85.0253 83.5076 
73.5691 85.4663 83.0342 
73.3132 85.9084 82.5885 
73.0366 86.3594 82.1819 
72.726 86.8291 81.8381 
72.371 87.3199 81.5852 
71.9659 87.8174 81.4526 
71.5436 88.3118 81.3708 
71.1088 88.7999 81.3344 
70.6785 89.2889 81.2934 
70.2488 89.7752 81.2644 
69.8006 90.2408 81.2977 
69.3379 90.6882 81.3785 
68.8513 91.0864 81.5431 
68.3544 91.4416 81.7666 
67.853 91.7588 82.0347 
67.3534 92.0219 82.3573 
66.8605 92.2319 82.7249 
66.3821 92.349 83.1509 
65.913 92.4067 83.6122 
65.4505 92.4139 84.1028 
64.9867 92.4112 84.6119 
64.5159 92.4103 85.1331 
64.0461 92.3989 85.6767 
63.5974 92.3361 86.2553 
63.2098 92.1752 86.875 
62.8885 91.9132 87.5229 
62.6282 91.5723 88.1798 
62.4435 91.1457 88.8247 
62.3029 90.6757 89.4637 
62.1569 90.2143 90.1211 
62.6108 90.565 90.456 
62.3801 90.2004 91.1581 
62.101 89.8743 91.8747 
61.8023 89.5603 92.5997 
61.5231 89.2254 93.3366 
61.3232 88.8245 94.09 
61.2642 88.3341 94.8451 
61.3245 87.7792 95.5812 
61.4765 87.183 96.2869 
61.7353 86.553 96.9387 
62.0214 85.9091 97.5799 
62.3685 85.2403 98.1982 
62.8716 84.5671 98.7355 
63.4641 83.8833 99.2196 
64.0212 83.1641 99.7257 
64.677 82.4519 100.141 
65.3749 81.7296 100.499 
66.1677 81.0238 100.721 
67.0715 80.3918 100.704 
68.0145 79.7879 100.55 
68.9985 79.3119 100.178 
69.947 79.1188 99.5134 
70.7876 79.0862 98.7119 
71.5549 79.1045 97.8646 
72.2105 79.2307 96.9596 
72.7047 79.4973 96.0201 
73.0836 79.8386 95.0825 
73.421 80.1763 94.1622 
73.7386 80.4981 93.2587 
74.0284 80.8136 92.3722 
74.2477 81.1659 91.5088 
74.3495 81.5871 90.6846 
74.3723 82.0415 89.9002 
74.4015 82.4708 89.1297 
74.4499 82.8602 88.3695 
74.476 83.2416 87.6254 
74.4903 83.6109 86.8961 
74.5134 83.956 86.1763 
74.5379 84.2825 85.4781 
74.4934 84.6309 84.8229 
74.3673 85.0145 84.2247 
74.1769 85.4235 83.684 
73.9683 85.832 83.1644 
73.7241 86.254 82.6892 
73.4502 86.6949 82.2668 
73.1254 87.1711 81.9431 
72.7562 87.6671 81.7153 
72.346 88.165 81.5911 
71.9165 88.6568 81.5304 
71.4798 89.1432 81.4988 
71.0417 89.6246 81.4814 
70.5978 90.0959 81.4926 
70.1409 90.5476 81.5559 
69.6701 90.9758 81.6692 
69.1841 91.3682 81.8406 
68.6889 91.7256 82.06 
68.1888 92.0413 82.328 
67.69 92.2942 82.6573 
67.2005 92.4817 83.039 
66.7244 92.6035 83.4654 
66.2622 92.6597 83.9319 
65.8039 92.6869 84.4247 
65.3369 92.7186 84.924 
64.8726 92.7327 85.4477 
64.4106 92.7307 85.9921 
63.9844 92.6593 86.5781 
63.6364 92.4671 87.203 
63.3558 92.1736 87.8439 
63.1083 91.8405 88.4984 
62.9312 91.4225 89.139 
62.7854 90.9783 89.782 
62.6105 90.5648 90.4558 
63.0376 90.9452 90.7878 
62.7883 90.6126 91.4976 
62.49 90.314 92.2194 
62.1694 90.0271 92.9454 
61.892 89.7044 93.6831 
61.7286 89.3048 94.4317 
61.712 88.8185 95.1725 
61.7694 88.2863 95.9105 
61.8913 87.7175 96.635 
62.0459 87.1225 97.352 
62.2305 86.4963 98.0617 
62.5244 85.8284 98.7405 
63.0535 85.1546 99.3027 
63.6574 84.4687 99.8082 
64.2346 83.7404 100.332 
64.9567 83.0373 100.725 
65.7487 82.3399 101.026 
66.5875 81.6403 101.237 
67.5066 80.9681 101.285 
68.4798 80.3181 101.198 
69.5054 79.9228 100.743 
70.4374 79.7931 100 
71.2776 79.7586 99.1689 
72.068 79.7491 98.3162 
72.7507 79.8299 97.4046 
73.2556 80.0624 96.4407 
73.6277 80.3863 95.477 
73.9537 80.7128 94.5318 
74.257 81.0275 93.6069 
74.5348 81.3352 92.703 
74.7363 81.6778 91.8227 
74.8121 82.0961 90.9866 
74.8211 82.5439 90.1906 
74.8489 82.9554 89.4009 
74.9001 83.3255 88.6166 
74.9008 83.709 87.8651 
74.8747 84.092 87.1332 
74.882 84.4316 86.4022 
74.9079 84.7298 85.6823 
74.8643 85.0593 85.0122 
74.7593 85.4127 84.3839 
74.601 85.7881 83.7981 
74.4083 86.1703 83.2431 
74.175 86.571 82.7301 
73.8886 87.0163 82.3051 
73.539 87.51 82.0166 
73.1505 88.0145 81.8247 
72.7338 88.5161 81.707 
72.2968 89.007 81.6605 
71.8537 89.4908 81.6436 
71.4045 89.9624 81.6607 
70.9494 90.421 81.7084 
70.4823 90.8556 81.8089 
70.0053 91.2689 81.9485 
69.5187 91.6568 82.1271 
69.0237 92.0122 82.3494 
68.5236 92.3275 82.6181 
68.0237 92.5846 82.9436 
67.531 92.7824 83.3196 
67.0525 92.9109 83.7466 
66.5893 92.9827 84.2139 
66.1307 93.0288 84.7041 
65.6699 93.0697 85.2073 
65.2128 93.0929 85.7342 
64.7669 93.0838 86.2907 
64.3742 92.9821 86.8905 
64.0826 92.7296 87.5176 
63.8391 92.4099 88.1509 
63.6037 92.0805 88.7983 
63.401 91.7154 89.4466 
63.2279 91.3218 90.1024 
63.0374 90.9449 90.7876 
63.3932 91.3896 91.1156 
63.1558 91.0675 91.832 
62.8512 90.7821 92.5585 
62.4982 90.5253 93.2826 
62.1969 90.2269 94.0195 
62.0584 89.8285 94.7713 
62.0635 89.3522 95.5169 
62.1074 88.8408 96.2735 
62.1642 88.3032 97.0378 
62.2339 87.7298 97.8052 
62.3938 87.1128 98.5551 
62.7446 86.4547 99.2482 
63.2852 85.7796 99.8339 
63.8764 85.085 100.381 
64.477 84.3559 100.928 
65.2346 83.6456 101.337 
66.0803 82.949 101.623 
66.9789 82.2565 101.82 
67.9262 81.5575 101.92 
68.9604 80.9366 101.804 
69.989 80.6493 101.218 
70.8816 80.5665 100.402 
71.7135 80.5255 99.5514 
72.5137 80.4932 98.697 
73.2351 80.514 97.8044 
73.7899 80.67 96.8413 
74.1773 80.951 95.8564 
74.4945 81.2653 94.8889 
74.7769 81.5773 93.9438 
75.0335 81.8796 93.0207 
75.2299 82.2027 92.1209 
75.3261 82.5797 91.2592 
75.3324 83.0117 90.4466 
75.3488 83.4169 89.6421 
75.3932 83.7683 88.8409 
75.3885 84.1399 88.0702 
75.3436 84.5264 87.3313 
75.3251 84.8672 86.5913 
75.3361 85.1525 85.8565 
75.3062 85.4486 85.1555 
75.2154 85.7707 84.4928 
75.0807 86.1099 83.8622 
74.9076 86.4573 83.2517 
74.6685 86.8555 82.7075 
74.3487 87.3334 82.3063 
73.9698 87.8493 82.0579 
73.5566 88.3649 81.9082 
73.1258 88.871 81.8114 
72.6802 89.3626 81.7779 
72.2275 89.842 81.7824 
71.7693 90.3065 81.8265 
71.303 90.7511 81.9148 
70.827 91.1698 82.0503 
70.3447 91.5704 82.2138 
69.8549 91.9486 82.4082 
69.3595 92.3023 82.6343 
68.8589 92.6191 82.903 
68.3569 92.8912 83.2171 
67.8618 93.0943 83.593 
67.3779 93.2401 84.0147 
66.9131 93.323 84.4827 
66.4603 93.3719 84.976 
66.0096 93.4131 85.4862 
65.5651 93.4373 86.0184 
65.1459 93.4075 86.5882 
64.7877 93.2712 87.1981 
64.5321 92.9835 87.819 
64.3179 92.6454 88.4461 
64.0871 92.3291 89.0929 
63.8366 92.0375 89.7533 
63.6103 91.7187 90.4239 
63.3931 91.3893 91.1155 
63.6731 91.8906 91.4277 
63.4458 91.5827 92.1499 
63.1578 91.2996 92.8842 
62.7705 91.0698 93.6061 
62.4315 90.7953 94.3463 
62.2671 90.4131 95.1198 
62.2444 89.9568 95.8946 
62.2582 89.4623 96.6769 
62.2736 88.9395 97.4737 
62.3419 88.3708 98.2752 
62.593 87.7551 99.0341 
63.0456 87.1076 99.6973 
63.6022 86.4386 100.295 
64.1876 85.748 100.881 
64.8038 85.026 101.456 
65.5493 84.2991 101.917 
66.4125 83.5879 102.239 
67.3577 82.8939 102.439 
68.3556 82.2049 102.539 
69.4444 81.6767 102.298 
70.4496 81.4425 101.623 
71.3232 81.3625 100.777 
72.1488 81.3081 99.9123 
72.9463 81.2602 99.0492 
73.6922 81.2391 98.1678 
74.3117 81.3105 97.2223 
74.7305 81.5425 96.2207 
75.0277 81.8482 95.2304 
75.2621 82.1743 94.2652 
75.4571 82.4989 93.3248 
75.6623 82.791 92.4089 
75.841 83.0775 91.5194 
75.8778 83.4652 90.6781 
75.8797 83.8645 89.862 
75.9088 84.2093 89.046 
75.9015 84.5633 88.2571 
75.849 84.9388 87.5043 
75.8092 85.2797 86.754 
75.8102 85.5498 86.0003 
75.7874 85.8139 85.2709 
75.7208 86.0946 84.5654 
75.6091 86.3934 83.8848 
75.4374 86.7323 83.2355 
75.1769 87.1542 82.6785 
74.8185 87.6636 82.2962 
74.4043 88.2013 82.0932 
73.9691 88.7256 81.9728 
73.5213 89.2326 81.9039 
73.066 89.7238 81.885 
72.6029 90.1996 81.9146 
72.1334 90.6531 81.9959 
71.6572 91.084 82.1217 
71.1753 91.4927 82.2794 
70.6869 91.8798 82.4683 
70.1945 92.2509 82.676 
69.6964 92.5955 82.9153 
69.1953 92.9105 83.1874 
68.694 93.1822 83.5042 
68.199 93.3929 83.8762 
67.7177 93.5406 84.2991 
67.2585 93.6208 84.7704 
66.8136 93.6716 85.2648 
66.378 93.7036 85.7798 
65.9547 93.7095 86.3207 
65.5613 93.6633 86.8933 
65.2238 93.5154 87.4962 
64.9768 93.2389 88.1109 
64.7596 92.9321 88.7401 
64.5061 92.6608 89.3945 
64.216 92.4192 90.0585 
63.9271 92.1712 90.7321 
63.673 91.8903 91.4275 
63.8931 92.4307 91.7175 
63.6729 92.1396 92.4476 
63.4051 91.8608 93.1916 
63.0179 91.6382 93.9176 
62.6628 91.3834 94.6695 
62.4593 91.0271 95.4638 
62.4091 90.5823 96.2675 
62.4198 90.0992 97.0716 
62.4045 89.5995 97.9006 
62.5166 89.0372 98.7275 
62.8769 88.4183 99.4627 
63.3922 87.7769 100.102 
63.968 87.118 100.706 
64.5662 86.4387 101.309 
65.2003 85.7328 101.901 
65.93 85.0091 102.42 
66.793 84.2901 102.793 
67.7657 83.597 103.011 
68.8183 82.942 103.06 
69.9216 82.4727 102.72 
70.9086 82.2568 101.998 
71.774 82.1646 101.138 
72.5926 82.0971 100.262 
73.3852 82.033 99.3895 
74.1468 81.9784 98.5131 
74.81 81.9952 97.5804 
75.2642 82.1753 96.5695 
75.5216 82.4864 95.5545 
75.6517 82.8551 94.5753 
75.7666 83.2038 93.6128 
76.0074 83.453 92.676 
76.2976 83.6402 91.7795 
76.4247 83.9327 90.9035 
76.4196 84.3206 90.0692 
76.4262 84.6647 89.2419 
76.4243 84.9931 88.4304 
76.3724 85.3478 87.6569 
76.3296 85.6686 86.8886 
76.3194 85.9254 86.1187 
76.2973 86.1692 85.3664 
76.2416 86.4245 84.6338 
76.1379 86.7128 83.9228 
75.956 87.0652 83.2589 
75.6782 87.503 82.6894 
75.2891 88.0284 82.3153 
74.8439 88.5703 82.1288 
74.3851 89.0979 82.0275 
73.9226 89.6048 81.979 
73.4533 90.0938 81.9859 
72.978 90.5605 82.0514 
72.4982 91.004 82.1661 
72.0141 91.4245 82.3184 
71.5257 91.8218 82.5031 
71.0323 92.1996 82.7107 
70.5352 92.5585 82.9392 
70.0349 92.8953 83.1898 
69.5328 93.2027 83.471 
69.0325 93.4659 83.7959 
68.5399 93.6766 84.1672 
68.0648 93.8188 84.5925 
67.6125 93.9006 85.0615 
67.1703 93.9584 85.5515 
66.7491 93.9814 86.0701 
66.346 93.9724 86.6139 
65.9758 93.9068 87.1873 
65.6476 93.7672 87.7846 
65.3764 93.5466 88.3994 
65.1285 93.3004 89.032 
64.8569 93.0644 89.6881 
64.5332 92.864 90.352 
64.1822 92.674 91.0187 
63.893 92.4304 91.7173 
64.1057 92.9819 91.9933 
63.8657 92.7162 92.7271 
63.6035 92.4503 93.4747 
63.263 92.2162 94.2174 
62.9526 91.9567 94.9866 
62.7756 91.6086 95.7932 
62.7423 91.1708 96.6056 
62.7541 90.7004 97.4232 
62.7224 90.2371 98.2761 
62.8241 89.704 99.1243 
63.2138 89.0902 99.8517 
63.7577 88.4575 100.481 
64.3463 87.8118 101.091 
64.9606 87.1479 101.706 
65.6094 86.4612 102.313 
66.3439 85.7552 102.863 
67.211 85.0457 103.274 
68.2017 84.3579 103.515 
69.2926 83.7347 103.515 
70.4015 83.2928 103.113 
71.3739 83.0794 102.357 
72.2313 82.9725 101.485 
73.0456 82.8894 100.6 
73.8325 82.8102 99.7179 
74.5946 82.7374 98.8381 
75.2675 82.7328 97.9064 
75.71 82.897 96.8823 
75.9898 83.16 95.8594 
76.0466 83.5527 94.8719 
76.1073 83.9214 93.8919 
76.3656 84.1377 92.9257 
76.7616 84.2187 92.0257 
76.9743 84.417 91.1224 
76.9611 84.792 90.2666 
76.9479 85.1335 89.4256 
76.9576 85.422 88.5874 
76.9206 85.7422 87.7896 
76.8895 86.025 86.9975 
76.8637 86.2754 86.2141 
76.8085 86.5401 85.4596 
76.7324 86.8126 84.7242 
76.6126 87.1186 84.012 
76.4341 87.4714 83.3377 
76.1352 87.9173 82.7786 
75.7357 88.4276 82.3883 
75.2756 88.9607 82.1876 
74.8008 89.4816 82.0849 
74.3217 89.9847 82.0605 
73.8392 90.4689 82.0966 
73.353 90.9269 82.1938 
72.8653 91.3604 82.3366 
72.3729 91.769 82.5182 
71.8782 92.1577 82.723 
71.38 92.5274 82.9474 
70.8779 92.874 83.1949 
70.3743 93.2001 83.4604 
69.8703 93.5017 83.7488 
69.3691 93.7607 84.0769 
68.8778 93.9676 84.45 
68.4036 94.1144 84.8699 
67.9516 94.2059 85.3325 
67.5117 94.2753 85.8166 
67.0976 94.2989 86.3341 
66.7124 94.2757 86.884 
66.3648 94.1921 87.465 
66.0331 94.0734 88.0627 
65.7163 93.9229 88.6742 
65.4203 93.7379 89.3046 
65.1237 93.5433 89.9587 
64.7903 93.3622 90.623 
64.4234 93.1945 91.292 
64.1056 92.9816 91.9932 
64.3633 93.5167 92.268 
64.0698 93.2923 92.9957 
63.7805 93.0554 93.7419 
63.5048 92.8006 94.5053 
63.2935 92.506 95.2896 
63.1874 92.1434 96.0908 
63.1922 91.7095 96.8991 
63.2068 91.2567 97.7298 
63.1624 90.8284 98.5957 
63.2517 90.3368 99.4436 
63.5999 89.7586 100.192 
64.1233 89.1469 100.844 
64.7202 88.5185 101.467 
65.3493 87.8736 102.089 
66.0192 87.2094 102.701 
66.7772 86.5269 103.252 
67.6565 85.841 103.676 
68.6667 85.1784 103.906 
69.7707 84.5785 103.886 
70.8771 84.1431 103.458 
71.841 83.9138 102.692 
72.6957 83.7842 101.816 
73.506 83.6826 100.926 
74.2873 83.5883 100.036 
75.036 83.5077 99.1434 
75.6613 83.521 98.1861 
76.1022 83.6597 97.1623 
76.4704 83.8404 96.1456 
76.5551 84.196 95.138 
76.584 84.5741 94.1549 
76.8248 84.7788 93.1768 
77.2332 84.8168 92.2606 
77.5137 84.9343 91.3395 
77.5133 85.2728 90.4509 
77.48 85.6061 89.5934 
77.4942 85.8688 88.7373 
77.4948 86.1182 87.901 
77.4749 86.3624 87.0839 
77.4176 86.6291 86.2949 
77.3062 86.9412 85.554 
77.1634 87.266 84.8439 
77.0227 87.5827 84.1421 
76.8325 87.9384 83.48 
76.5388 88.3655 82.9196 
76.1507 88.8496 82.506 
75.6907 89.3641 82.2734 
75.2093 89.8754 82.1582 
74.7183 90.3747 82.1453 
74.2243 90.8498 82.2137 
73.7295 91.3008 82.3358 
73.2324 91.7211 82.5102 
72.7347 92.1236 82.7103 
72.2332 92.4993 82.941 
71.7286 92.8599 83.1836 
71.2223 93.1996 83.4431 
70.7144 93.5147 83.7238 
70.2072 93.8087 84.0211 
69.7034 94.0688 84.3473 
69.2083 94.2828 84.7132 
68.7263 94.4479 85.119 
68.2658 94.562 85.567 
67.826 94.6365 86.0494 
67.4185 94.6596 86.5721 
67.0501 94.6265 87.1319 
66.7191 94.5334 87.7242 
66.384 94.4305 88.3267 
66.0269 94.3333 88.9327 
65.6768 94.2095 89.5543 
65.3534 94.0518 90.2056 
65.0324 93.8792 90.8783 
64.6857 93.7109 91.5615 
64.3632 93.5164 92.2679 
64.649 94.0407 92.5384 
64.3046 93.8611 93.2601 
63.9664 93.6609 94.0028 
63.71 93.4088 94.7793 
63.571 93.093 95.5795 
63.5266 92.7211 96.3859 
63.5507 92.3043 97.2049 
63.5596 91.874 98.0508 
63.535 91.4462 98.9131 
63.6401 90.9726 99.7549 
63.9575 90.432 100.526 
64.4779 89.8452 101.2 
65.0838 89.2369 101.833 
65.7266 88.61 102.461 
66.4313 87.9678 103.059 
67.2211 87.3127 103.586 
68.1232 86.6587 103.982 
69.1387 86.0283 104.195 
70.2372 85.4592 104.154 
71.3329 85.0264 103.732 
72.3004 84.7643 102.993 
73.1655 84.5991 102.134 
73.974 84.4761 101.242 
74.7507 84.3669 100.345 
75.4881 84.2763 99.4401 
76.0755 84.2973 98.4578 
76.5221 84.4134 97.4337 
76.9082 84.561 96.417 
77.0527 84.8532 95.396 
77.1166 85.1889 94.4023 
77.3296 85.3957 93.4159 
77.7077 85.435 92.4813 
78.0261 85.5045 91.5477 
78.0617 85.7802 90.6256 
78.0106 86.1001 89.7489 
78.0357 86.3231 88.8712 
78.0669 86.5142 88.006 
78.0544 86.7282 87.1645 
77.9616 87.0152 86.3729 
77.7917 87.3664 85.6496 
77.598 87.7207 84.9572 
77.4042 88.0619 84.2811 
77.1876 88.4162 83.6412 
76.9072 88.8195 83.0773 
76.5376 89.2786 82.6439 
76.0934 89.7723 82.3703 
75.6114 90.2765 82.2383 
75.1121 90.7707 82.2361 
74.6093 91.2382 82.3298 
74.1055 91.6805 82.4773 
73.6016 92.0965 82.668 
73.0974 92.4848 82.8998 
72.5902 92.8516 83.152 
72.0799 93.2025 83.4127 
71.5675 93.5362 83.6844 
71.0543 93.8464 83.9727 
70.5425 94.1369 84.275 
70.0336 94.3988 84.5998 
69.5308 94.6236 84.9562 
69.0398 94.8068 85.3476 
68.5622 94.9513 85.774 
68.1182 95.0336 86.2554 
67.7191 95.053 86.7883 
67.3679 95.0097 87.362 
67.0479 94.9188 87.9649 
66.7064 94.8317 88.5731 
66.3237 94.7677 89.1758 
65.9404 94.6878 89.7923 
65.5954 94.5599 90.4454 
65.2856 94.3965 91.1261 
64.9649 94.2257 91.8238 
64.6488 94.0404 92.5382 
64.925 94.5791 92.7975 
64.5669 94.4234 93.5237 
64.1783 94.27 94.2595 
63.916 94.0295 95.0501 
63.7823 93.7175 95.8643 
63.7324 93.3609 96.689 
63.7178 92.9747 97.5304 
63.7128 92.5624 98.3912 
63.7272 92.1307 99.2626 
63.8836 91.6536 100.11 
64.2604 91.1267 100.878 
64.8152 90.5591 101.548 
65.4363 89.9679 102.19 
66.094 89.3569 102.825 
66.8258 88.7333 103.411 
67.6471 88.1024 103.91 
68.5755 87.4789 104.265 
69.5922 86.8787 104.459 
70.6843 86.3507 104.367 
71.766 85.93 103.942 
72.7594 85.6209 103.272 
73.6405 85.4189 102.439 
74.4506 85.2749 101.548 
75.2245 85.1496 100.645 
75.9567 85.0469 99.729 
76.5443 85.0466 98.736 
76.9672 85.1559 97.6966 
77.3122 85.3039 96.668 
77.5103 85.5394 95.6455 
77.65 85.8028 94.6393 
77.858 85.9949 93.6459 
78.1867 86.0586 92.6916 
78.474 86.1397 91.7439 
78.5509 86.3557 90.8021 
78.5274 86.623 89.898 
78.565 86.8125 88.9999 
78.6185 86.9591 88.1121 
78.6147 87.1437 87.2489 
78.4945 87.4334 86.4484 
78.2904 87.7924 85.7233 
78.0593 88.1594 85.039 
77.8326 88.5072 84.3716 
77.5799 88.8663 83.755 
77.2818 89.2632 83.2086 
76.9192 89.7028 82.7669 
76.4863 90.1827 82.473 
76.0064 90.6804 82.3326 
75.5037 91.171 82.3294 
74.9936 91.6373 82.4326 
74.4823 92.0744 82.6016 
73.971 92.4829 82.8168 
73.4618 92.8599 83.076 
72.9496 93.2162 83.3539 
72.4329 93.5587 83.6328 
71.9129 93.8881 83.9135 
71.3922 94.2014 84.2006 
70.8752 94.4871 84.5091 
70.3603 94.7498 84.8348 
69.85 94.9833 85.1846 
69.3451 95.1908 85.5559 
68.8583 95.3474 85.9745 
68.4062 95.4428 86.4519 
68.009 95.4669 86.988 
67.6751 95.4156 87.5781 
67.3587 95.3325 88.1904 
67.0078 95.2666 88.802 
66.6096 95.2268 89.4038 
66.2214 95.1631 90.0265 
65.8737 95.0542 90.6838 
65.5543 94.9088 91.3698 
65.2328 94.7554 92.072 
64.9249 94.5788 92.7973 
65.1858 95.137 93.0396 
64.846 94.9853 93.7788 
64.4669 94.8458 94.525 
64.1825 94.6339 95.3186 
64.0088 94.3498 96.143 
63.9012 94.0224 96.9833 
63.8205 93.6665 97.8448 
63.7899 93.2757 98.7286 
63.8333 92.845 99.6234 
64.0743 92.3644 100.478 
64.5439 91.842 101.224 
65.1448 91.2878 101.885 
65.783 90.7105 102.535 
66.4518 90.1161 103.181 
67.195 89.5068 103.774 
68.0449 88.8936 104.255 
68.99 88.2906 104.596 
70.0223 87.719 104.75 
71.1114 87.242 104.556 
72.181 86.8407 104.114 
73.2001 86.5015 103.509 
74.1084 86.2585 102.718 
74.9312 86.0855 101.841 
75.7059 85.9451 100.933 
76.4226 85.8395 99.9972 
76.9774 85.8417 98.9778 
77.3985 85.9148 97.9339 
77.7596 86.0216 96.9084 
78.0127 86.1985 95.8837 
78.1971 86.4123 94.8674 
78.4056 86.5867 93.8661 
78.6531 86.6999 92.8866 
78.8735 86.812 91.9237 
